ply
format ascii 1.0
element vertex 870
property double x
property double y
property double z
end_header
0.000387000007322 -0.117238000035286 0.662286996841431
-0.004459000192583 -0.140869006514549 0.666846990585327
-0.003784999949858 -0.137448996305466 0.665807008743286
-0.003182000014931 -0.129789993166924 0.666206002235413
-0.002723000012338 -0.124989002943039 0.668726027011871
-0.000253000005614 -0.119397997856140 0.666468977928162
0.001108999946155 -0.117159001529217 0.666028022766113
0.056161001324654 -0.115640997886658 0.666350007057190
0.002931999973953 -0.114730000495911 0.666243016719818
0.005530000198632 -0.112180002033710 0.667514979839325
0.032818000763655 -0.112244002521038 0.669166028499603
0.032600998878479 -0.109442003071308 0.667391002178192
-0.005140000022948 -0.141068994998932 0.671932995319366
-0.004540000110865 -0.136862993240356 0.670587003231049
-0.002989999949932 -0.131637006998062 0.672348976135254
-0.003690999932587 -0.129765003919601 0.670207977294922
-0.000407000014093 -0.120956003665924 0.670916020870209
0.002539000008255 -0.117323003709316 0.670540988445282
0.033286001533270 -0.118061996996403 0.671680986881256
0.057778000831604 -0.117627002298832 0.671118021011353
0.007774000056088 -0.112554997205734 0.671522021293640
0.032850001007318 -0.114832997322083 0.671544015407562
0.055259000509977 -0.111005999147892 0.670840978622437
0.013748000375926 -0.107846997678280 0.671961009502411
0.031962998211384 -0.107491001486778 0.671778023242950
0.053036000579596 -0.106539003551006 0.670818984508514
-0.004705999977887 -0.136693999171257 0.674832999706268
-0.004375000018626 -0.131418004631996 0.675499022006989
-0.002942000050098 -0.127070993185043 0.675862014293671
0.034419998526573 -0.125505998730659 0.677289009094238
-0.000857000006363 -0.124039001762867 0.677797973155975
0.000365000014426 -0.122477002441883 0.677007973194122
0.033704999834299 -0.121971003711224 0.675715982913971
0.061324000358582 -0.123116001486778 0.676930010318756
0.003665999975055 -0.118753999471664 0.675590991973877
0.006742999888957 -0.117346003651619 0.677821993827820
0.031658999621868 -0.117508001625538 0.678735971450806
0.058315999805927 -0.117850996553898 0.675728023052216
0.013036999851465 -0.113160997629166 0.677323997020721
0.017684999853373 -0.111483998596668 0.677254974842072
0.021988000720739 -0.111873999238014 0.678776979446411
0.027641000226140 -0.112415000796318 0.677663981914520
0.033587001264095 -0.113311998546124 0.676325976848602
0.054728001356125 -0.111340999603271 0.675805985927582
0.017454000189900 -0.108345001935959 0.675116002559662
0.022120000794530 -0.109582997858524 0.676792979240417
0.025970999151468 -0.107761003077030 0.675141990184784
0.034115999937057 -0.109347999095917 0.677309989929199
0.037925999611616 -0.106858000159264 0.677320003509521
0.047405999153852 -0.106325998902321 0.678713977336884
0.051591001451015 -0.107109002768993 0.675953984260559
0.042188998311758 -0.104194000363350 0.676986992359161
0.047986000776291 -0.103970997035503 0.675391972064972
0.035649999976158 -0.137493997812271 0.681581020355225
0.035353999584913 -0.131212994456291 0.681017994880676
-0.001931000035256 -0.126355007290840 0.680927991867065
0.034219000488520 -0.126469999551773 0.680863976478577
0.002836999949068 -0.122244000434875 0.680978000164032
0.026723999530077 -0.120315998792648 0.683827996253967
0.032497998327017 -0.120949998497963 0.681190013885498
0.059691000729799 -0.120361998677254 0.680498003959656
0.062275998294353 -0.123966000974178 0.680938005447388
0.009238000027835 -0.118258997797966 0.681030988693237
0.014043999835849 -0.116896003484726 0.682246029376984
0.020810000598431 -0.117384001612663 0.683004975318909
0.027496000751853 -0.118280999362469 0.681370973587036
0.038063000887632 -0.117091998457909 0.682735979557037
0.056938998401165 -0.116218999028206 0.680715978145599
0.017552999779582 -0.113816000521183 0.679978013038635
0.024813000112772 -0.114606000483036 0.680144011974335
0.036738999187946 -0.113075003027916 0.682299971580505
0.041648000478745 -0.111689999699593 0.683130025863647
0.046689998358488 -0.112080000340939 0.684464991092682
0.053091999143362 -0.112795002758503 0.682605981826782
0.042027998715639 -0.108441002666950 0.680445015430450
0.047462001442909 -0.109908998012543 0.681638002395630
0.050211999565363 -0.108902998268604 0.680224001407623
0.036827001720667 -0.141911000013351 0.686764001846313
0.035498000681400 -0.136886999011040 0.686236023902893
0.033323001116514 -0.133279994130135 0.686115026473999
0.035429000854492 -0.131224006414413 0.685681998729706
-0.001682000001892 -0.128016993403435 0.685799002647400
0.002732000080869 -0.126799002289772 0.688943982124329
0.026086999103427 -0.126188993453979 0.689203023910522
0.032223999500275 -0.127470001578331 0.686145007610321
0.035670001059771 -0.126959994435310 0.689041972160339
0.064286999404430 -0.127306997776031 0.686303019523621
0.002043999964371 -0.125145003199577 0.685545027256012
0.006620999891311 -0.123888000845909 0.686837971210480
0.012068999931216 -0.122185997664928 0.687107980251312
0.017401000484824 -0.122305996716022 0.687381982803345
0.023506000638008 -0.122441999614239 0.687425017356873
0.028496000915766 -0.124099001288414 0.686168015003204
0.037053000181913 -0.122120998799801 0.687635004520416
0.059046998620033 -0.120420999825001 0.685817003250122
0.062304999679327 -0.124489001929760 0.685539007186890
0.037218999117613 -0.118450000882149 0.685397982597351
0.041303999722004 -0.117927998304367 0.687965989112854
0.045733999460936 -0.117797002196312 0.688437998294830
0.051902998238802 -0.116677001118660 0.688210010528564
0.055881001055241 -0.117756001651287 0.686936974525452
0.042807999998331 -0.113646000623703 0.685456991195679
0.050167001783848 -0.114469997584820 0.686195015907288
0.001798999961466 -0.140375003218651 0.694562017917633
0.034044001251459 -0.141291007399559 0.690321028232574
0.036554001271725 -0.140708997845650 0.690689980983734
0.036095999181271 -0.137793004512787 0.692479014396667
0.026872999966145 -0.133246004581451 0.692764997482300
0.032574001699686 -0.133848994970322 0.690245985984802
0.037112999707460 -0.131941005587578 0.692646026611328
-0.001370999962091 -0.129590004682541 0.689942002296448
0.002185000106692 -0.128656998276711 0.691770017147064
0.007577999960631 -0.128215000033379 0.692921996116638
0.011760000139475 -0.128671005368233 0.692287027835846
0.016457000747323 -0.128447994589806 0.692686975002289
0.022113999351859 -0.129050001502037 0.692224979400635
0.028256999328732 -0.129758000373840 0.689710021018982
0.039383001625538 -0.127187997102737 0.691690981388092
0.041204001754522 -0.127716004848480 0.694535017013550
0.064805001020432 -0.128490999341011 0.690867006778717
0.019426999613643 -0.124837003648281 0.689971029758453
0.038272000849247 -0.123837999999523 0.690137028694153
0.043501000851393 -0.121941000223160 0.691987991333008
0.048673000186682 -0.121535003185272 0.693189024925232
0.052574001252651 -0.121359996497631 0.693386018276215
0.057535000145435 -0.121499001979828 0.690510988235474
0.061664998531342 -0.124911002814770 0.690693020820618
0.052813999354839 -0.119081996381283 0.690267026424408
0.032124001532793 -0.147157996892929 0.698827028274536
0.038332998752594 -0.146806001663208 0.697097003459930
0.001963000046089 -0.140688002109528 0.694757997989655
0.023357000201941 -0.141865000128746 0.698065996170044
0.027191000059247 -0.143701002001762 0.697804987430573
0.032315999269485 -0.143187999725342 0.696748971939087
0.038920000195503 -0.141570001840591 0.697492003440857
0.043701998889446 -0.141846001148224 0.696334004402161
0.002401999896392 -0.139697998762131 0.698122978210449
0.018771000206470 -0.136224001646042 0.697839021682739
0.023189999163151 -0.137243002653122 0.696303009986877
0.028401000425220 -0.136950001120567 0.694777011871338
0.041030000895262 -0.136972993612289 0.697585999965668
-0.002159999916330 -0.133036002516747 0.696186006069183
0.001871000044048 -0.133264005184174 0.697539985179901
0.007875000126660 -0.132122993469238 0.696914017200470
0.012547000311315 -0.133369997143745 0.697436988353729
0.018402999266982 -0.131520003080368 0.695563018321991
0.039317000657320 -0.134999006986618 0.695887029170990
0.043497998267412 -0.131345003843307 0.698143005371094
0.064622998237610 -0.130712002515793 0.698485970497131
0.067027002573013 -0.131723999977112 0.696541011333466
0.047901999205351 -0.128929004073143 0.698122978210449
0.051663998514414 -0.126599997282028 0.697669029235840
0.057142999023199 -0.126943007111549 0.697233021259308
0.062616996467113 -0.128025993704796 0.695793986320496
0.044876001775265 -0.124837003648281 0.694799005985260
0.055488999933004 -0.123605996370316 0.694850027561188
0.017271000891924 -0.147846996784210 0.704102993011475
0.022063000127673 -0.147529006004333 0.701102972030640
0.037631001323462 -0.148967996239662 0.699654996395111
0.001891999971122 -0.142170995473862 0.701161026954651
0.013001999817789 -0.142107993364334 0.704219996929169
0.018093999475241 -0.145000994205475 0.702337026596069
0.020500000566244 -0.142673000693321 0.700123012065887
0.042488999664783 -0.142414003610611 0.702544987201691
0.003426000010222 -0.137728005647659 0.704379022121429
0.008380999788642 -0.137592002749443 0.703483998775482
0.012710000388324 -0.138169005513191 0.701608002185822
0.017500000074506 -0.138579994440079 0.699949026107788
0.043464999645948 -0.139054000377655 0.702216029167175
0.047688998281956 -0.136795997619629 0.704464018344879
0.061960998922586 -0.136920005083084 0.701548993587494
0.069156996905804 -0.136378005146980 0.704048991203308
-0.001204999978654 -0.134756997227669 0.700744986534119
0.003751999931410 -0.135174006223679 0.701030015945435
0.007654999848455 -0.134066000580788 0.699672996997833
0.046176999807358 -0.134958997368813 0.701777994632721
0.052170999348164 -0.133004993200302 0.703222990036011
0.058191001415253 -0.132737994194031 0.702346980571747
0.061592001467943 -0.131732001900673 0.702404975891113
0.066477999091148 -0.133600994944572 0.701808989048004
0.054790999740362 -0.130082994699478 0.700510978698730
0.059066999703646 -0.128968998789787 0.699698984622955
0.001423000008799 -0.147933006286621 0.706170022487640
0.011714999563992 -0.148644000291824 0.707427024841309
0.001390999997966 -0.141451999545097 0.707392990589142
0.006508999969810 -0.143546998500824 0.708862006664276
0.010015999898314 -0.143785998225212 0.706781029701233
0.046528998762369 -0.143114000558853 0.707148015499115
0.050372000783682 -0.140523999929428 0.709493994712830
0.071474999189377 -0.141800999641418 0.707343995571136
0.000349000009010 -0.138989001512527 0.705339014530182
0.006105000153184 -0.140163004398346 0.705851018428802
0.048909001052380 -0.139315992593765 0.706121027469635
0.053534001111984 -0.137116998434067 0.707771003246307
0.057463999837637 -0.137602999806404 0.707540988922119
0.063225999474525 -0.136121004819870 0.706906974315643
0.067394003272057 -0.137099996209145 0.706601977348328
0.057622000575066 -0.134222000837326 0.704865992069244
0.008322999812663 -0.151204004883766 0.709689021110535
0.002368000103161 -0.148880004882812 0.712081015110016
0.005400000140071 -0.147006005048752 0.711113989353180
0.003045999910682 -0.143158003687859 0.709695994853973
0.064805999398232 -0.140278995037079 0.711508989334106
0.056434001773596 -0.140010997653008 0.711643993854523
0.060849998146296 -0.138908997178078 0.712265014648438
0.066703997552395 -0.139215007424355 0.710452020168304
0.053516000509262 -0.078092001378536 0.627712011337280
0.052388001233339 -0.086549997329712 0.632152974605560
0.052280001342297 -0.082557998597622 0.631130993366241
0.051017001271248 -0.077102996408939 0.632209002971649
0.048145998269320 -0.072438001632690 0.634603023529053
0.052384000271559 -0.092421002686024 0.636713981628418
-0.003807999892160 -0.088583998382092 0.638558983802795
0.051984000951052 -0.088375002145767 0.635533988475800
-0.003624999895692 -0.083531998097897 0.638043999671936
0.049215998500586 -0.083631001412868 0.639333009719849
0.050857000052929 -0.083350002765656 0.635471999645233
-0.006577999796718 -0.076279997825623 0.636038005352020
-0.002531999954954 -0.078603997826576 0.638110995292664
0.049258999526501 -0.078498996794224 0.635728001594543
-0.002437999937683 -0.072379000484943 0.636721014976501
0.002581000095233 -0.074049003422260 0.638360023498535
0.006794000044465 -0.072104997932911 0.639150977134705
0.047125000506639 -0.074058003723621 0.636937975883484
0.012792999856174 -0.067717999219894 0.639330029487610
0.044748999178410 -0.070205003023148 0.637696027755737
-0.000623999978416 -0.097714997828007 0.642319977283478
0.001472000032663 -0.096487000584602 0.643342971801758
0.052257001399994 -0.097700998187065 0.642278015613556
-0.002024000044912 -0.091614998877048 0.639935016632080
0.002998000010848 -0.093009002506733 0.643199980258942
0.051973000168800 -0.094129003584385 0.640698015689850
0.002971000038087 -0.088408000767231 0.641713023185730
0.006010999903083 -0.087526001036167 0.643190026283264
0.049226999282837 -0.085294999182224 0.641220986843109
0.050957001745701 -0.089472003281116 0.640601992607117
0.001251999987289 -0.081952996551991 0.639837980270386
0.008194999769330 -0.083085000514984 0.643144011497498
0.047091998159885 -0.081675000488758 0.642735004425049
0.007588999811560 -0.077572003006935 0.641278982162476
0.011376000009477 -0.077747002243996 0.643441021442413
0.029945999383926 -0.076458998024464 0.642713010311127
0.043632999062538 -0.075938001275063 0.644219994544983
0.046560000628233 -0.079453997313976 0.641974985599518
0.013158000074327 -0.072828002274036 0.641824007034302
0.016929000616074 -0.072619996964931 0.643971979618073
0.042936000972986 -0.070510998368263 0.640606999397278
0.045306999236345 -0.075195997953415 0.640437006950378
0.016852000728250 -0.069205999374390 0.641924023628235
0.021864999085665 -0.067722000181675 0.642753005027771
0.027580000460148 -0.067562997341156 0.641669988632202
0.033015001565218 -0.066619999706745 0.642153024673462
0.038655001670122 -0.068109996616840 0.643997013568878
0.040171999484301 -0.066216997802258 0.641025006771088
0.002157999901101 -0.103077001869678 0.647194981575012
0.051927000284195 -0.100254997611046 0.646014988422394
0.002282999921590 -0.100064001977444 0.645476996898651
0.005235000047833 -0.096395000815392 0.646407008171082
0.051715999841690 -0.097170002758503 0.646170020103455
0.008286000229418 -0.093760997056961 0.647405028343201
0.010214000009000 -0.090471997857094 0.647964000701904
0.051277998834848 -0.094673998653889 0.645480990409851
0.007422000169754 -0.090212002396584 0.645202994346619
0.011779000051320 -0.087683998048306 0.647633016109467
0.047850999981165 -0.085464999079704 0.645617008209229
0.049970000982285 -0.090154998004436 0.645637989044189
0.013837999664247 -0.083567000925541 0.647092998027802
0.026906000450253 -0.080678001046181 0.647468984127045
0.045497000217438 -0.081174001097679 0.645750999450684
0.012645999900997 -0.080234996974468 0.644846022129059
0.017410000786185 -0.077459998428822 0.647413015365601
0.021366000175476 -0.075531996786594 0.649289011955261
0.028002999722958 -0.076419003307819 0.649030983448029
0.042911998927593 -0.076842002570629 0.646506011486053
0.022920999675989 -0.073067001998425 0.647130012512207
0.028260000050068 -0.074918001890182 0.646176993846893
0.031861998140812 -0.072752997279167 0.647336006164551
0.035385999828577 -0.071815997362137 0.648350000381470
0.040755998343229 -0.072236999869347 0.646013975143433
0.035422001034021 -0.069315999746323 0.645727992057800
0.000895000004675 -0.110623002052307 0.652392983436584
0.001719999941997 -0.107294000685215 0.650699019432068
0.051575999706984 -0.106577001512051 0.651641011238098
0.004416999872774 -0.103473000228405 0.650891005992889
0.007406999822706 -0.100337997078896 0.652014970779419
0.051708001643419 -0.103015996515751 0.651322007179260
0.007242999970913 -0.097884997725487 0.649825990200043
0.011811000294983 -0.095591001212597 0.654016971588135
0.051130998879671 -0.096770003437996 0.650646984577179
0.011880000121891 -0.092313997447491 0.650758028030396
0.048810001462698 -0.090990997850895 0.652531981468201
0.050514999777079 -0.093993000686169 0.650367975234985
0.016044000163674 -0.087572000920773 0.652290999889374
0.030609000474215 -0.086577996611595 0.652572989463806
0.046096999198198 -0.086805000901222 0.652494013309479
0.017914000898600 -0.083559997379780 0.651446998119354
0.022280000150204 -0.081335000693798 0.653962016105652
0.026747999712825 -0.080542996525764 0.650633990764618
0.031610000878572 -0.080727003514767 0.654205024242401
0.043113999068737 -0.082603998482227 0.652498006820679
0.023517999798059 -0.078327998518944 0.650900006294250
0.029732000082731 -0.078785002231598 0.651103973388672
0.033973000943661 -0.075938001275063 0.651346981525421
0.036772001534700 -0.077371001243591 0.653760015964508
0.040839999914169 -0.078593000769615 0.652288019657135
0.038276001811028 -0.074046000838280 0.650119006633759
0.001445999951102 -0.111877001821995 0.656027972698212
0.053075999021530 -0.110552996397018 0.657411992549896
0.002921999897808 -0.108157001435757 0.655221998691559
0.007023000158370 -0.105489000678062 0.659313023090363
0.052398998290300 -0.107459001243114 0.655786991119385
0.007348000071943 -0.102757997810841 0.655534029006958
0.051858998835087 -0.103106997907162 0.655954003334045
0.012248000130057 -0.096937000751495 0.656449019908905
0.050372000783682 -0.096176996827126 0.655629992485046
0.015525000169873 -0.092973999679089 0.656120002269745
0.047899998724461 -0.091789998114109 0.656917989253998
0.018370000645518 -0.088225997984409 0.655390024185181
0.021903000771999 -0.087908998131752 0.658742010593414
0.030224999412894 -0.087181001901627 0.657823979854584
0.044739000499249 -0.087713003158569 0.656691014766693
0.021700000390410 -0.084761999547482 0.656414985656738
0.026252999901772 -0.083780996501446 0.656772971153259
0.033477000892162 -0.083576001226902 0.658065021038055
0.036936998367310 -0.082438997924328 0.658649027347565
0.041827000677586 -0.083821997046471 0.656723022460938
0.037647001445293 -0.080059997737408 0.656138002872467
0.002440999960527 -0.112479999661446 0.660544991493225
0.052880000323057 -0.112925000488758 0.661509990692139
0.006897999905050 -0.106944002211094 0.661321997642517
0.053102001547813 -0.106710001826286 0.660552024841309
0.009452999569476 -0.104351997375488 0.662573993206024
0.010613000020385 -0.102371998131275 0.661870002746582
0.051787998527288 -0.101231999695301 0.660481989383698
0.013592000119388 -0.098489999771118 0.660531997680664
0.016768999397755 -0.098099999129772 0.663987994194031
0.027475999668241 -0.099477000534534 0.662144005298615
0.030595000833273 -0.096854001283646 0.661374986171722
0.049598000943661 -0.096459999680519 0.660533010959625
0.017139999195933 -0.094980001449585 0.660436987876892
0.021562000736594 -0.092793002724648 0.662451028823853
0.025580000132322 -0.091567002236843 0.663469016551971
0.031817998737097 -0.092074997723103 0.663143992424011
0.042557001113892 -0.090453997254372 0.664579987525940
0.046696998178959 -0.092422001063824 0.660634994506836
0.025118000805378 -0.089082002639771 0.661225974559784
0.031663000583649 -0.090149000287056 0.660871028900146
0.036260999739170 -0.087913997471333 0.663097977638245
0.041714001446962 -0.086951002478600 0.660449981689453
0.054900001734495 -0.111369997262955 0.665547013282776
0.008589000441134 -0.108736000955105 0.667442023754120
0.013082999736071 -0.106389999389648 0.669330000877380
0.053787000477314 -0.107081003487110 0.665684998035431
0.011621000245214 -0.104418002068996 0.665575981140137
0.016319999471307 -0.102407999336720 0.667882978916168
0.020935999229550 -0.100418999791145 0.669278025627136
0.031978998333216 -0.102084003388882 0.667721986770630
0.051359999924898 -0.101499997079372 0.665812015533447
0.022704999893904 -0.097699999809265 0.667186975479126
0.026513999328017 -0.099748000502586 0.665655970573425
0.031415998935699 -0.097842000424862 0.667734980583191
0.035913001745939 -0.095578998327255 0.669251978397369
0.047159999608994 -0.097244001924992 0.667726993560791
0.027867000550032 -0.093818001449108 0.665027022361755
0.034605998545885 -0.093569003045559 0.666589975357056
0.039351999759674 -0.092387996613979 0.667340993881226
0.042761001735926 -0.093282997608185 0.667401015758514
0.045216999948025 -0.093893997371197 0.665535986423492
0.018436999991536 -0.104860998690128 0.671999990940094
0.023204000666738 -0.103912003338337 0.672586023807526
0.026549000293016 -0.102660998702049 0.670935988426208
0.032212000340223 -0.102549999952316 0.671073019504547
0.036844000220299 -0.101618997752666 0.673622012138367
0.044700000435114 -0.101088002324104 0.674112021923065
0.048507001250982 -0.101699002087116 0.672532021999359
0.050615001469851 -0.102223001420498 0.670515000820160
0.037983000278473 -0.097909003496170 0.671831011772156
0.042022999376059 -0.098159998655319 0.671525001525879
0.045542001724243 -0.098909996449947 0.671581983566284
0.029424000531435 -0.040782999247313 0.595597028732300
0.029836999252439 -0.040194001048803 0.596863985061646
0.029934000223875 -0.046360999345779 0.602222025394440
0.029744999483228 -0.043241001665592 0.601271986961365
0.023102000355721 -0.036984000355005 0.602535009384155
0.028003999963403 -0.038649000227451 0.601523995399475
0.027904000133276 -0.033557999879122 0.602038979530334
0.056005001068115 -0.031067000702024 0.601481020450592
0.031184000894427 -0.045464999973774 0.607671976089478
0.028560999780893 -0.043076001107693 0.606290996074677
0.022327000275254 -0.037523999810219 0.606796026229858
0.028559999540448 -0.037569999694824 0.605656981468201
0.030124999582767 -0.037510998547077 0.609604001045227
0.060419999063015 -0.037914998829365 0.607194006443024
0.018728999421000 -0.033062998205423 0.609143018722534
0.020168000832200 -0.031390000134706 0.605825006961823
0.033684000372887 -0.032637998461723 0.605558991432190
0.036862999200821 -0.033498000353575 0.609124004840851
0.041421998292208 -0.032253999263048 0.608128011226654
0.059429001063108 -0.032095000147820 0.605838000774384
0.063276998698711 -0.031318999826908 0.609041988849640
0.016307000070810 -0.028305999934673 0.606997013092041
0.038049001246691 -0.029913999140263 0.605935990810394
0.043579999357462 -0.028653999790549 0.606478989124298
0.049221001565456 -0.028388999402523 0.608260989189148
0.053350999951363 -0.026582999154925 0.607604980468750
0.059475999325514 -0.028065999969840 0.608623981475830
0.061790000647306 -0.028354000300169 0.607012987136841
0.065796002745628 -0.028522999957204 0.607546985149384
0.059967000037432 -0.051088001579046 0.611953973770142
0.027680000290275 -0.048200000077486 0.611913979053497
0.031323000788689 -0.047765001654625 0.610302984714508
0.061958998441696 -0.047795001417398 0.612848997116089
0.026791000738740 -0.042523000389338 0.612195014953613
0.062551997601986 -0.041956000030041 0.612165987491608
0.015417999587953 -0.035737998783588 0.614094018936157
0.021262999624014 -0.038435000926256 0.611307024955750
0.026025999337435 -0.039925999939442 0.610369980335236
0.032129999250174 -0.039266001433134 0.611793994903564
0.036405999213457 -0.035975001752377 0.612125992774963
0.042984001338482 -0.036052998155355 0.613452017307281
0.048372998833656 -0.036541998386383 0.614118993282318
0.052025999873877 -0.035500001162291 0.613487005233765
0.056988999247551 -0.037184998393059 0.613664984703064
0.063210003077984 -0.036798998713493 0.610341012477875
0.012129999697208 -0.032381001859903 0.613321006298065
0.016749000176787 -0.033645998686552 0.611535012722015
0.041048999875784 -0.033973000943661 0.611407995223999
0.046634998172522 -0.033119000494480 0.611311018466949
0.052276998758316 -0.032742001116276 0.611343979835510
0.057732000946999 -0.034669999033213 0.611729025840759
0.007780999876559 -0.027181999757886 0.613026022911072
0.011920999735594 -0.028146000579000 0.610893011093140
0.056278001517057 -0.029926000162959 0.609763979911804
0.006322000175714 -0.022547999396920 0.612124979496002
0.055815998464823 -0.063798002898693 0.617281973361969
0.060593999922276 -0.062215000391006 0.618373990058899
0.059121001511812 -0.058634001761675 0.616886019706726
0.061487998813391 -0.056419000029564 0.617326021194458
0.032694000750780 -0.050248999148607 0.615477025508881
0.058536998927593 -0.052473999559879 0.618869006633759
0.062461998313665 -0.052223000675440 0.616674005985260
0.022406000643969 -0.047676000744104 0.616366982460022
0.027556000277400 -0.047339998185635 0.616657018661499
0.031819999217987 -0.047419998794794 0.615934014320374
0.057277001440525 -0.047899998724461 0.618283987045288
0.061877999454737 -0.047304999083281 0.615027010440826
0.021719999611378 -0.043235000222921 0.617550015449524
0.029054999351501 -0.043843999505043 0.615265011787415
0.033466000109911 -0.042105000466108 0.616975009441376
0.035714998841286 -0.042109001427889 0.617917001247406
0.042171001434326 -0.042128000408411 0.618924021720886
0.046849001199007 -0.042068000882864 0.618330001831055
0.051750998944044 -0.043458998203278 0.618456006050110
0.056577000766993 -0.041978001594543 0.616110980510712
0.008476000279188 -0.036217998713255 0.617972016334534
0.011711999773979 -0.037760999053717 0.617708027362823
0.017294999212027 -0.039347000420094 0.616065025329590
0.038589000701904 -0.039122998714447 0.615983009338379
0.044133998453617 -0.038777001202106 0.615697979927063
0.050999000668526 -0.039905000478029 0.616339981555939
0.002878000028431 -0.031757999211550 0.618418991565704
0.007540000136942 -0.033762998878956 0.616684019565582
-0.006198000162840 -0.026677999645472 0.619594991207123
-0.001029000035487 -0.028328999876976 0.619122982025146
0.002159999916330 -0.026127999648452 0.616401016712189
0.006246999837458 -0.029462000355124 0.615176022052765
-0.007957999594510 -0.022714000195265 0.618092000484467
-0.003391999984160 -0.023784000426531 0.618178009986877
0.000182999996468 -0.021159999072552 0.615760028362274
-0.005433000158519 -0.018904000520706 0.616100013256073
-0.002683999948204 -0.017231000587344 0.615352988243103
0.055700998753309 -0.071419000625610 0.622244000434875
0.056136000901461 -0.067489996552467 0.622048974037170
0.056600999087095 -0.061960998922586 0.621092021465302
0.054131999611855 -0.055785998702049 0.623242974281311
0.058102998882532 -0.058761000633240 0.619785010814667
0.027796000242233 -0.052443999797106 0.621658980846405
0.033140998333693 -0.051708001643419 0.620180010795593
0.052462000399828 -0.051222998648882 0.622628986835480
0.056292999535799 -0.055036000907421 0.621268987655640
0.017249999567866 -0.046698998659849 0.624226987361908
0.023398000746965 -0.048319000750780 0.621626019477844
0.032540000975132 -0.047972001135349 0.622235000133514
0.037666998803616 -0.046971000730991 0.623079001903534
0.042300000786781 -0.047462999820709 0.624173998832703
0.048060998320580 -0.048135001212358 0.622937023639679
0.050097998231649 -0.046596001833677 0.621122002601624
0.002948000095785 -0.041841998696327 0.623480975627899
0.012486999854445 -0.043214999139309 0.622129976749420
0.018371999263763 -0.044675000011921 0.621315002441406
0.036028001457453 -0.044665999710560 0.620747983455658
0.043118998408318 -0.045154001563787 0.621568024158478
-0.005578999873251 -0.038127001374960 0.624405026435852
-0.003186000045389 -0.036038000136614 0.623313009738922
0.003225000109524 -0.037539001554251 0.620997011661530
0.008302000351250 -0.040208999067545 0.621065974235535
-0.007493999786675 -0.033886000514030 0.622969985008240
-0.002990999957547 -0.032761998474598 0.621595978736877
0.054678000509739 -0.072922997176647 0.624939978122711
0.053052000701427 -0.069095999002457 0.627430975437164
0.053167998790741 -0.063188001513481 0.625864982604980
0.032113000750542 -0.058892998844385 0.627362012863159
0.048556998372078 -0.057861998677254 0.627969026565552
0.051782999187708 -0.058006998151541 0.625487983226776
0.002804999938235 -0.050627000629902 0.629423022270203
0.011926000006497 -0.051089998334646 0.629019021987915
0.017482999712229 -0.050515998154879 0.627492010593414
0.022631000727415 -0.053079999983311 0.628107011318207
0.027405999600887 -0.055006001144648 0.627197980880737
0.032510999590158 -0.052331998944283 0.626046001911163
0.037264999002218 -0.051773998886347 0.629218995571136
0.042488999664783 -0.051192998886108 0.627197980880737
0.048751000314951 -0.053835000842810 0.626007020473480
-0.008479000069201 -0.047265000641346 0.628462970256805
-0.002619999926537 -0.048011001199484 0.628584980964661
0.001843999954872 -0.046879999339581 0.626973986625671
0.007011999841779 -0.048057999461889 0.627122998237610
0.012329000048339 -0.048404000699520 0.626812994480133
0.020622000098228 -0.049764998257160 0.625473976135254
0.038816001266241 -0.048774998635054 0.625383019447327
0.045802999287844 -0.049975998699665 0.625060975551605
-0.010870999656618 -0.044206000864506 0.626716017723083
-0.008081000298262 -0.042753998190165 0.626416027545929
-0.002752000000328 -0.042006000876427 0.625472009181976
0.050537001341581 -0.071650996804237 0.631371974945068
-0.008460000157356 -0.065728001296520 0.634091019630432
0.048282001167536 -0.066944003105164 0.632348001003265
0.049826998263597 -0.065466001629829 0.630012989044189
-0.011377999559045 -0.061186999082565 0.631506979465485
-0.006382000166923 -0.063146002590656 0.633943974971771
0.004920999985188 -0.061085999011993 0.634429991245270
0.028867999091744 -0.060802001506090 0.631267011165619
0.033376000821590 -0.062950000166893 0.632214009761810
0.046452999114990 -0.062263000756502 0.632080018520355
-0.007311000023037 -0.057854000478983 0.632583022117615
-0.003344000084326 -0.058963999152184 0.633428990840912
0.002164999954402 -0.056869000196457 0.632803976535797
0.007996999658644 -0.057215999811888 0.633150994777679
0.013381999917328 -0.057103998959064 0.633319020271301
0.019364999607205 -0.057665001600981 0.633979976177216
0.021627999842167 -0.056650001555681 0.632184982299805
0.026562999933958 -0.058614000678062 0.632212996482849
0.031861998140812 -0.057045001536608 0.630364000797272
0.037620000541210 -0.057034999132156 0.634186029434204
0.042628999799490 -0.058008998632431 0.632916986942291
0.044906001538038 -0.056736998260021 0.630567014217377
-0.008964999578893 -0.053070001304150 0.630858004093170
-0.000981000019237 -0.052985999733210 0.631196022033691
0.006027999799699 -0.053865998983383 0.631326019763947
0.012838000431657 -0.054644998162985 0.631630003452301
0.017014000564814 -0.052747000008821 0.629796981811523
0.037923999130726 -0.054609999060631 0.631803989410400
0.041398998349905 -0.053153000771999 0.629755020141602
-0.006645000074059 -0.070009000599384 0.634836018085480
-0.003256999887526 -0.066811002790928 0.635241985321045
0.003666999982670 -0.068287000060081 0.636596024036407
0.009468999691308 -0.067396998405457 0.637827992439270
0.028717000037432 -0.066506996750832 0.636492013931274
0.046169001609087 -0.068035997450352 0.635271012783051
0.000858000013977 -0.064093001186848 0.634714007377625
0.007890000008047 -0.065039001405239 0.636507987976074
0.011900000274181 -0.062166001647711 0.636178970336914
0.018844999372959 -0.062532998621464 0.638487994670868
0.022516999393702 -0.061654001474380 0.637068986892700
0.028262000530958 -0.062648996710777 0.635900974273682
0.031803999096155 -0.063170999288559 0.637875974178314
0.037330999970436 -0.060481000691652 0.637434005737305
0.041852999478579 -0.063538998365402 0.637583017349243
0.015939999371767 -0.059418998658657 0.635369002819061
0.034063998609781 -0.058825001120567 0.635410010814667
0.040816999971867 -0.059595998376608 0.635339975357056
0.036655999720097 -0.063031002879143 0.639909982681274
0.087679997086525 -0.417584985494614 0.494130998849869
0.089477002620697 -0.417901009321213 0.497195988893509
0.083512999117374 -0.414101988077164 0.497121989727020
0.085427001118660 -0.411610990762711 0.495999991893768
0.092625997960567 -0.417578995227814 0.501829981803894
0.084513001143932 -0.414689004421234 0.499832987785339
0.086465999484062 -0.412927985191345 0.501181006431580
0.094083003699780 -0.418384999036789 0.505434989929199
0.087875999510288 -0.412672996520996 0.505158007144928
0.089832000434399 -0.411821007728577 0.507040023803711
0.091394998133183 -0.416213989257812 0.512682974338531
0.095785997807980 -0.417602986097336 0.511170983314514
0.089576996862888 -0.414963990449905 0.510209977626801
0.092266999185085 -0.412945985794067 0.510313987731934
0.097827002406120 -0.415107011795044 0.509872972965240
0.095831997692585 -0.409604012966156 0.511703014373779
0.091734997928143 -0.417041003704071 0.517464995384216
0.093382999300957 -0.412983000278473 0.515097975730896
0.096392996609211 -0.414011001586914 0.515713989734650
0.093893997371197 -0.409348994493484 0.515769004821777
0.095898002386093 -0.422131001949310 0.522149026393890
0.097520001232624 -0.420116990804672 0.520337998867035
0.096314996480942 -0.414052009582520 0.520905017852783
0.098021000623703 -0.426054000854492 0.527150988578796
0.099371999502182 -0.423539996147156 0.527535021305084
0.097149997949600 -0.417892992496490 0.525309979915619
0.100640997290611 -0.415964007377625 0.526979982852936
0.099478997290134 -0.413803011178970 0.525627017021179
0.100557997822762 -0.410351008176804 0.527306020259857
0.098663002252579 -0.408324986696243 0.526431977748871
0.096933998167515 -0.417396992444992 0.531148016452789
0.101870000362396 -0.413219988346100 0.531764984130859
0.102504000067711 -0.406801998615265 0.530005991458893
0.097860999405384 -0.417515009641647 0.535221993923187
0.103060998022556 -0.417145013809204 0.536390006542206
0.110988996922970 -0.417295008897781 0.536289989948273
0.103794999420643 -0.412660986185074 0.536193013191223
0.098939001560211 -0.419330000877380 0.540600001811981
0.101635001599789 -0.416251003742218 0.540516018867493
0.111431002616882 -0.417169988155365 0.540378987789154
0.104281999170780 -0.410252988338470 0.540462970733643
0.107574999332428 -0.412474006414413 0.541090011596680
0.100405998528004 -0.421265989542007 0.547800004482269
0.099770002067089 -0.419950008392334 0.545572996139526
0.101948000490665 -0.416583001613617 0.545642971992493
0.110074996948242 -0.415910005569458 0.545714974403381
0.108064003288746 -0.412380993366241 0.545735001564026
0.113307997584343 -0.413949012756348 0.545599997043610
0.104281000792980 -0.406904995441437 0.547089993953705
0.105053998529911 -0.409487009048462 0.547482013702393
0.111929997801781 -0.407844007015228 0.545714020729065
0.100588001310825 -0.420924991369247 0.551750004291534
0.102040998637676 -0.417226999998093 0.550414979457855
0.108667001128197 -0.416545987129211 0.552895009517670
0.106151998043060 -0.413341999053955 0.550508022308350
0.111808001995087 -0.412321001291275 0.550432026386261
0.115437000989914 -0.411365002393723 0.552797019481659
0.107407003641129 -0.409429013729095 0.551523983478546
0.112751998007298 -0.408461987972260 0.551060974597931
0.100542999804020 -0.420569986104965 0.555760025978088
0.102274999022484 -0.417106986045837 0.555694997310638
0.105893999338150 -0.413084000349045 0.555673003196716
0.110678002238274 -0.411109000444412 0.555917978286743
0.113852001726627 -0.409327000379562 0.556236982345581
0.101051002740860 -0.418040007352829 0.560563981533051
0.104033999145031 -0.412306010723114 0.563326001167297
0.105366997420788 -0.412342995405197 0.560657978057861
0.110427998006344 -0.410418987274170 0.560441017150879
0.114889003336430 -0.408749997615814 0.560715973377228
0.115574002265930 -0.404004991054535 0.561634004116058
0.099780999124050 -0.418935000896454 0.564981997013092
0.101231001317501 -0.415645986795425 0.565443992614746
0.103147000074387 -0.411927014589310 0.566478013992310
0.107614003121853 -0.408297985792160 0.566125988960266
0.112589001655579 -0.408596992492676 0.565504014492035
0.118225999176502 -0.407025992870331 0.565621972084045
0.118192002177238 -0.400494009256363 0.568174004554749
0.021911999210715 -0.001704000052996 0.566742002964020
0.098972998559475 -0.416866987943649 0.571565985679626
0.100575998425484 -0.413538992404938 0.571012020111084
0.103592999279499 -0.409530013799667 0.570627987384796
0.107642002403736 -0.407267987728119 0.570725977420807
0.111560001969337 -0.407591998577118 0.571253001689911
0.118983998894691 -0.407826989889145 0.569670975208282
0.106767997145653 -0.403937995433807 0.571552991867065
0.118279002606869 -0.404978007078171 0.570375978946686
0.119892999529839 -0.401448011398315 0.572256028652191
0.118661999702454 -0.399203985929489 0.570113003253937
0.014152999967337 -0.010839000344276 0.574580013751984
0.017582999542356 -0.007540999911726 0.570767998695374
0.023566000163555 -0.006051000207663 0.573568999767303
0.025582000613213 -0.008961999788880 0.570967018604279
0.016945000737906 -0.003021999960765 0.573023021221161
0.022384999319911 -0.004836000036448 0.570739984512329
0.037158999592066 -0.003678000066429 0.570613026618958
0.041832998394966 -0.000867000024300 0.572322010993958
0.013334999792278 0.000686999992467 0.574096024036407
0.015267999842763 0.001735000056215 0.570487976074219
0.042449001222849 0.001667000004090 0.571492016315460
0.044982999563217 0.002188999904320 0.573285996913910
0.098796002566814 -0.416087001562119 0.575354993343353
0.099573001265526 -0.413150995969772 0.575662970542908
0.102324999868870 -0.407714992761612 0.576009988784790
0.107156001031399 -0.406477004289627 0.575370013713837
0.114175997674465 -0.405932009220123 0.574635982513428
0.104455001652241 -0.404729992151260 0.576898992061615
0.111152000725269 -0.403427988290787 0.577522993087769
0.117801003158092 -0.402916014194489 0.577826976776123
0.120737999677658 -0.401423007249832 0.576170980930328
0.118152000010014 -0.399493008852005 0.577470004558563
0.038577999919653 -0.012325000017881 0.575506985187531
0.016454000025988 -0.008183999918401 0.576626002788544
0.021680999547243 -0.008387999609113 0.576502025127411
0.037776000797749 -0.007741999812424 0.577489018440247
0.013330999761820 -0.002698000054806 0.576683998107910
0.042277000844479 -0.002171000000089 0.575637996196747
0.009188000112772 0.003660999936983 0.577184975147247
0.046140998601913 0.001011000014842 0.575727999210358
0.097975999116898 -0.415452986955643 0.580758988857269
0.098863996565342 -0.412371009588242 0.580654978752136
0.099174998700619 -0.408823013305664 0.580322027206421
0.102265998721123 -0.407353013753891 0.580473005771637
0.106634996831417 -0.405328989028931 0.580408990383148
0.104618996381760 -0.403714001178741 0.580752015113831
0.108887001872063 -0.400976002216339 0.581336021423340
0.115318998694420 -0.401302009820938 0.580469012260437
0.111955001950264 -0.399791002273560 0.582401990890503
0.117167003452778 -0.399684995412827 0.582309007644653
0.024388000369072 -0.016305999830365 0.582691013813019
0.031791001558304 -0.017184000462294 0.580408990383148
0.015510999597609 -0.010982000268996 0.584107995033264
0.021493000909686 -0.011719999834895 0.580798983573914
0.025136999785900 -0.014965999871492 0.580317020416260
0.036782998591661 -0.011611999943852 0.581057012081146
0.012308999896049 -0.007490999996662 0.580924987792969
0.016697000712156 -0.009308000095189 0.580300986766815
0.042451001703739 -0.006591999903321 0.581474006175995
0.007954999804497 -0.003105999901891 0.582202017307281
0.009883999824524 -0.001716000027955 0.579764008522034
0.043471999466419 -0.004038999788463 0.579901993274689
0.047850999981165 -0.001628999947570 0.581294000148773
0.000938999990467 0.004058999940753 0.583319008350372
0.006107999943197 0.001577000017278 0.580987989902496
0.052046999335289 0.001402999972925 0.580834984779358
-0.001535000046715 0.008092000149190 0.582929015159607
0.004393000155687 0.006736000068486 0.580051004886627
0.002243000082672 0.010405000299215 0.579876005649567
0.097718998789787 -0.412970989942551 0.585705995559692
0.098644003272057 -0.409388005733490 0.586079001426697
0.102269001305103 -0.406973987817764 0.585232019424438
0.105278998613358 -0.406127989292145 0.584639012813568
0.104446999728680 -0.402456998825073 0.585336983203888
0.107825003564358 -0.398232996463776 0.587059020996094
0.112369999289513 -0.396456986665726 0.587575972080231
0.117600999772549 -0.396539002656937 0.586583018302917
0.109394997358322 -0.394178986549377 0.587477982044220
0.118274003267288 -0.390408009290695 0.587302982807159
0.120265997946262 -0.394665002822876 0.588086009025574
0.026227999478579 -0.020587999373674 0.585587024688721
0.019177999347448 -0.015304000116885 0.588975012302399
0.023438999429345 -0.016782000660896 0.585500001907349
0.034669000655413 -0.018524000421166 0.586564004421234
0.036568000912666 -0.016053000465035 0.585983991622925
0.013427999801934 -0.010967000387609 0.586476027965546
0.017653999850154 -0.013749999925494 0.586169004440308
0.038490999490023 -0.013660999946296 0.587208986282349
0.042606998234987 -0.011447000317276 0.589087009429932
0.005965000018477 -0.007488999981433 0.588056027889252
0.009987999685109 -0.008019000291824 0.585579991340637
0.041496001183987 -0.009770000353456 0.585448980331421
0.046147000044584 -0.007153000216931 0.587445974349976
0.002285999944434 -0.002675000112504 0.586403012275696
0.006180999800563 -0.004569000098854 0.585344016551971
0.049414999783039 -0.003484999993816 0.585389018058777
0.053782999515533 -0.000494999985676 0.585241019725800
-0.002167999977246 0.001699000014924 0.586265981197357
0.097758002579212 -0.411861985921860 0.590322971343994
0.098319001495838 -0.409072011709213 0.590588986873627
0.100279003381729 -0.406044006347656 0.590694010257721
0.102923996746540 -0.401697993278503 0.590510010719299
0.103823997080326 -0.399522989988327 0.591332972049713
0.106182001531124 -0.396371006965637 0.590737998485565
0.111934997141361 -0.392165005207062 0.591418981552124
0.117550000548363 -0.392410010099411 0.591464996337891
0.117578998208046 -0.388727992773056 0.593025028705597
0.120500996708870 -0.384801000356674 0.592335999011993
0.028096999973059 -0.025946000590920 0.592423975467682
0.022923000156879 -0.022383999079466 0.592357993125916
0.025172999128699 -0.021653000265360 0.590875029563904
0.033103000372648 -0.023500999435782 0.592253983020782
0.018048999831080 -0.017519000917673 0.590891003608704
0.021578999236226 -0.018954999744892 0.592028021812439
0.038104999810457 -0.017478000372648 0.590861976146698
0.008801000192761 -0.011409999802709 0.593831002712250
0.012427000328898 -0.012431000359356 0.590804994106293
0.043791998177767 -0.012525999918580 0.591401994228363
0.003161000087857 -0.006413999944925 0.590746998786926
0.007422999944538 -0.009534999728203 0.590916991233826
0.047446001321077 -0.009374000132084 0.591847002506256
0.051153000444174 -0.005704999901354 0.591103017330170
-0.005394000094384 -0.002336000092328 0.594470977783203
-0.003353999927640 -0.002134999958798 0.591356992721558
0.056364998221397 -0.002168999984860 0.591693997383118
0.058970000594854 0.001139000058174 0.589868009090424
0.098407000303268 -0.411781013011932 0.597488999366760
0.097751997411251 -0.408856004476547 0.595399975776672
0.099794000387192 -0.405077993869781 0.595794022083282
0.101341001689434 -0.401897013187408 0.597387015819550
0.102361999452114 -0.399616003036499 0.595968008041382
0.103133998811245 -0.395058006048203 0.599485993385315
0.106715999543667 -0.392376005649567 0.596871972084045
0.113536000251770 -0.388406008481979 0.597510993480682
0.117686003446579 -0.387071996927261 0.595654010772705
0.117941997945309 -0.384193986654282 0.597185015678406
0.025823999196291 -0.027086999267340 0.597325026988983
0.055863998830318 -0.026066999882460 0.598303973674774
0.017818000167608 -0.021114999428391 0.597503006458282
0.021956000477076 -0.023416999727488 0.596850991249084
0.037742000073195 -0.021518999710679 0.595861017704010
0.013686000369489 -0.017288999632001 0.597280025482178
0.041891001164913 -0.018399000167847 0.595950007438660
0.045933000743389 -0.016739999875426 0.597374975681305
0.056906998157501 -0.018627999350429 0.597874999046326
0.009646999649704 -0.013345000334084 0.597432017326355
0.011130000464618 -0.013574000447989 0.595107018947601
0.047267001122236 -0.012881999835372 0.594887018203735
0.052094001322985 -0.011788999661803 0.597449004650116
-0.000698000018019 -0.005954999942333 0.599515974521637
0.002561999950558 -0.007491999771446 0.595652997493744
0.006273000035435 -0.010212999768555 0.595808982849121
0.052962001413107 -0.008039000444114 0.595278978347778
0.059452999383211 -0.007215000223368 0.598861992359161
0.060532998293638 -0.006151999812573 0.597660005092621
-0.002321999985725 -0.004354999866337 0.595502018928528
0.056775998324156 -0.004662000108510 0.595728993415833
0.060309998691082 -0.003097000066191 0.597038984298706
0.098145999014378 -0.406738013029099 0.600067019462585
0.098962001502514 -0.402419000864029 0.601145029067993
0.101272001862526 -0.396768003702164 0.600870013237000
0.103283002972603 -0.392412006855011 0.601072013378143
0.106169998645782 -0.387699007987976 0.602095007896423
0.110754996538162 -0.386783987283707 0.600937008857727
0.116654999554157 -0.385899990797043 0.599897980690002
0.109860002994537 -0.384772002696991 0.604400992393494
0.116915002465248 -0.382587999105453 0.601068019866943
0.117530003190041 -0.377739012241364 0.602661013603210
0.023754000663757 -0.030246999114752 0.603390991687775
0.027904000133276 -0.033557999879122 0.602038979530334
0.032359000295401 -0.031282000243664 0.601751029491425
0.056005001068115 -0.031067000702024 0.601481020450592
0.018693000078201 -0.026275999844074 0.602156996726990
0.021911999210715 -0.027752000838518 0.600868999958038
0.026922000572085 -0.027886999770999 0.600444018840790
0.037374000996351 -0.027263000607491 0.602631986141205
0.042059000581503 -0.025286000221968 0.602792978286743
0.058410998433828 -0.027127999812365 0.602468013763428
0.015626000240445 -0.022097000852227 0.601746976375580
0.039445001631975 -0.023963000625372 0.600591003894806
0.043843001127243 -0.021232999861240 0.600042998790741
0.045345000922680 -0.022982999682426 0.602361023426056
0.050801999866962 -0.022276999428868 0.604254007339478
0.057663999497890 -0.022197000682354 0.600966989994049
0.012629999779165 -0.018363000825047 0.600920975208282
0.048875000327826 -0.019006000831723 0.601225972175598
0.054728001356125 -0.018029000610113 0.601321995258331
0.057425998151302 -0.017882000654936 0.603066027164459
0.062558002769947 -0.018501000478864 0.603163003921509
0.007509000133723 -0.012811999768019 0.600749015808105
0.051773000508547 -0.015087000094354 0.599633991718292
0.055902998894453 -0.012008000165224 0.599861979484558
0.061781998723745 -0.013367000035942 0.601620018482208
-0.001504000043496 -0.006711999885738 0.600661993026733
0.001830999972299 -0.008023000322282 0.600597023963928
0.095954000949860 -0.406830012798309 0.607134997844696
0.096643000841141 -0.403286010026932 0.605830013751984
0.098419003188610 -0.396717995405197 0.606078028678894
0.101029999554157 -0.391250997781754 0.606952011585236
0.103064998984337 -0.387189000844955 0.606588006019592
0.108773000538349 -0.383370995521545 0.606893002986908
0.113504998385906 -0.381554007530212 0.606239020824432
0.117288999259472 -0.378107011318207 0.605848014354706
0.118937999010086 -0.373733013868332 0.606186985969543
0.028560999780893 -0.043076001107693 0.606290996074677
0.022327000275254 -0.037523999810219 0.606796026229858
0.028559999540448 -0.037569999694824 0.605656981468201
0.030124999582767 -0.037510998547077 0.609604001045227
0.060419999063015 -0.037914998829365 0.607194006443024
0.018728999421000 -0.033062998205423 0.609143018722534
0.020168000832200 -0.031390000134706 0.605825006961823
0.033684000372887 -0.032637998461723 0.605558991432190
0.036862999200821 -0.033498000353575 0.609124004840851
0.041421998292208 -0.032253999263048 0.608128011226654
0.059429001063108 -0.032095000147820 0.605838000774384
0.063276998698711 -0.031318999826908 0.609041988849640
0.016307000070810 -0.028305999934673 0.606997013092041
0.038049001246691 -0.029913999140263 0.605935990810394
0.043579999357462 -0.028653999790549 0.606478989124298
0.049221001565456 -0.028388999402523 0.608260989189148
