ply
format ascii 1.0
element vertex 886
property double x
property double y
property double z
end_header
0.024085000157356 0.056873001158237 0.995244979858398
0.030872000381351 0.051600001752377 0.995141029357910
0.028743000701070 0.053578998893499 0.992558002471924
0.023576999083161 0.056138999760151 0.990570008754730
0.020812999457121 0.052048001438379 0.990751981735229
0.029518999159336 0.055431999266148 0.990321993827820
0.030825000256300 0.045386001467705 0.990585029125214
0.031091999262571 0.050742000341415 0.990305006504059
0.019309999421239 0.047359999269247 0.990756988525391
0.019285000860691 0.042247001081705 0.990747988224030
0.030423000454903 0.038384001702070 0.990499019622803
0.033557001501322 0.042073000222445 0.990191996097565
0.031101999804378 0.047325998544693 0.985818028450012
0.031289998441935 0.051987998187542 0.985472023487091
0.031318001449108 0.041951999068260 0.985853016376495
0.019510999321938 0.047324001789093 0.985732972621918
0.022970000281930 0.052294000983238 0.985391974449158
0.023927999660373 0.033911000937223 0.986064016819000
0.030883999541402 0.038316998630762 0.985610008239746
0.019623000174761 0.042031001299620 0.985656023025513
0.028498999774456 0.033158998936415 0.985680997371674
0.021141000092030 0.037013001739979 0.985596001148224
0.031490001827478 0.041962001472712 0.981657981872559
0.031796999275684 0.047297000885010 0.980701029300690
0.019317999482155 0.047497998923063 0.980570018291473
0.020067000761628 0.041694000363350 0.980647981166840
0.021322000771761 0.037381000816822 0.980768978595734
0.028305999934673 0.033408001065254 0.980699002742767
0.031369999051094 0.036648999899626 0.980293989181519
0.023829000070691 0.034129999577999 0.980521976947784
0.033296000212431 0.040938999503851 0.976794004440308
0.032271001487970 0.047440998256207 0.975778996944427
0.020235000178218 0.043843999505043 0.975859999656677
0.032664999365807 0.036970999091864 0.975794017314911
0.021405000239611 0.037275001406670 0.975841999053955
0.023829000070691 0.034315999597311 0.975848019123077
0.026357999071479 0.036453001201153 0.975480973720551
0.029644999653101 0.032655999064445 0.975476980209351
0.019698999822140 0.040617000311613 0.975215017795563
0.024818999692798 0.038830000907183 0.970852017402649
0.027429999783635 0.034529998898506 0.970682978630066
0.021366000175476 0.037106998264790 0.970607995986938
0.029826000332832 0.032598998397589 0.970537006855011
0.024120999500155 0.034235000610352 0.970541000366211
0.023839000612497 0.034299999475479 0.965673983097076
0.027606999501586 0.034487001597881 0.965514004230499
0.021184999495745 0.037321001291275 0.965511977672577
0.032141998410225 0.033369001001120 0.965250015258789
0.031711000949144 0.036575999110937 0.961345970630646
0.027682999148965 0.032299999147654 0.960722029209137
0.021269999444485 0.037220999598503 0.960663020610809
0.024402000010014 0.033652000129223 0.960502028465271
0.031477000564337 0.037360001355410 0.955678999423981
0.024400999769568 0.032949000597000 0.955815970897675
0.020314000546932 0.036866001784801 0.955523014068604
0.029715999960899 0.030990999191999 0.955443978309631
0.026991000398993 0.029168000444770 0.955147981643677
0.024554999545217 0.036104001104832 0.952571988105774
0.027620999142528 0.031831998378038 0.951265990734100
0.038322001695633 0.036956999450922 0.945685982704163
0.036327000707388 0.032444000244141 0.945748984813690
0.038991000503302 0.042082000523806 0.945213019847870
0.032232999801636 0.028142999857664 0.945611000061035
0.028003999963403 0.026846999302506 0.945567011833191
0.037020001560450 0.048801999539137 0.940645992755890
0.020756000652909 0.044302001595497 0.940501987934113
0.023025000467896 0.032483998686075 0.940663993358612
0.038244001567364 0.037176001816988 0.930657982826233
0.025193000212312 0.049729000777006 0.926099002361298
0.025056000798941 0.049747001379728 0.920642018318176
0.038483001291752 0.042323000729084 0.896459996700287
0.035560000687838 0.048020999878645 0.895672976970673
0.037073999643326 0.030721999704838 0.895703971385956
0.023040000349283 0.037859998643398 0.895498991012573
0.024361999705434 0.033778999000788 0.895606994628906
0.042567998170853 0.041715998202562 0.893020987510681
0.044181998819113 0.046360000967979 0.892543971538544
0.038169000297785 0.031962998211384 0.892452001571655
0.045942999422550 0.043349001556635 0.891277015209198
0.031707998365164 0.026776999235153 0.892077982425690
0.037911001592875 0.044488999992609 0.891112983226776
0.034444998949766 0.045430999249220 0.890572011470795
0.024999000132084 0.047051999717951 0.890682995319366
0.034430999308825 0.035709999501705 0.890511989593506
0.040591999888420 0.033348999917507 0.890250027179718
0.023140000179410 0.037725999951363 0.890641987323761
0.024382000789046 0.033808000385761 0.890708029270172
0.032129000872374 0.020903000608087 0.890856027603149
0.045122001320124 0.041292998939753 0.887461006641388
0.032182998955250 0.027884999290109 0.887816011905670
0.032848000526428 0.030611999332905 0.887386023998260
0.031672999262810 0.022773999720812 0.887471020221710
0.035741001367569 0.043223001062870 0.885926008224487
0.024907000362873 0.047060001641512 0.885520994663239
0.026287000626326 0.028372000902891 0.886003017425537
0.027197999879718 0.023098999634385 0.886039018630981
0.037882998585701 0.030091000720859 0.885344982147217
0.041425999253988 0.032690998166800 0.885049998760223
0.022913999855518 0.032776001840830 0.885569989681244
0.022941999137402 0.037448998540640 0.885172009468079
0.046117000281811 0.039774999022484 0.882386028766632
0.035872999578714 0.036065999418497 0.882351994514465
0.020335000008345 0.033241998404264 0.882447004318237
0.032225001603365 0.021745000034571 0.881864011287689
0.037331998348236 0.043983999639750 0.880735993385315
0.036942001432180 0.028271000832319 0.881188988685608
0.045154001563787 0.038212001323700 0.880213022232056
0.023161999881268 0.041482001543045 0.880807995796204
0.020546000450850 0.036357000470161 0.880479991436005
0.041439000517130 0.033686000853777 0.879691004753113
0.016743000596762 0.033443998545408 0.880496025085449
0.036975000053644 0.042459998279810 0.876891970634460
0.044581998139620 0.037039998918772 0.876219987869263
0.035447999835014 0.047502998262644 0.875805974006653
0.032788001000881 0.050994999706745 0.875644981861115
0.041260000318289 0.031622000038624 0.876166999340057
0.029340999200940 0.052324000746012 0.875569999217987
0.033328998833895 0.032855000346899 0.876074016094208
0.025240000337362 0.046828001737595 0.875666975975037
0.038222998380661 0.028068000450730 0.875638008117676
0.035886000841856 0.017642000690103 0.875984013080597
0.023119000717998 0.041526000946760 0.875470995903015
0.022544000297785 0.036373000591993 0.875528991222382
0.037276998162270 0.022619999945164 0.875411987304688
0.018270000815392 0.029907999560237 0.875357985496521
0.039461001753807 0.036754000931978 0.874351024627686
0.035162001848221 0.028356999158859 0.874453008174896
0.033211998641491 0.039562001824379 0.873319983482361
0.036003001034260 0.042842999100685 0.872382998466492
0.034104000777006 0.019486999139190 0.872161984443665
0.032841000705957 0.040123000741005 0.871460020542145
0.032997999340296 0.050308998674154 0.870688021183014
0.037640001624823 0.019117999821901 0.871636986732483
0.041923999786377 0.033071998506784 0.870895981788635
0.035197999328375 0.046309001743793 0.870530009269714
0.029116999357939 0.049963001161814 0.870519995689392
0.036446001380682 0.030092999339104 0.871007978916168
0.021258000284433 0.032717000693083 0.871361970901489
0.025187000632286 0.046624001115561 0.870525002479553
0.033362999558449 0.028024999424815 0.870943009853363
0.023522000759840 0.043026998639107 0.870634019374847
0.036991998553276 0.022795999422669 0.870783984661102
0.022064000368118 0.037647001445293 0.870356023311615
0.033679999411106 0.031403999775648 0.869121015071869
0.038313001394272 0.025599999353290 0.867439985275269
0.033808000385761 0.047715000808239 0.865689992904663
0.027411999180913 0.048145998269320 0.865603983402252
0.023762000724673 0.043134998530149 0.865851998329163
0.034354001283646 0.041737001389265 0.865472018718719
0.036345001310110 0.031067999079823 0.865513980388641
0.022516999393702 0.036770999431610 0.865760028362274
0.034802000969648 0.028429999947548 0.865251004695892
0.037112999707460 0.021339999511838 0.865292012691498
0.032834999263287 0.038458999246359 0.864736020565033
0.035796001553535 0.015522000379860 0.865225017070770
0.028932999819517 0.035307001322508 0.864243984222412
0.036368001252413 0.013175999745727 0.863147974014282
0.034003000706434 0.020111000165343 0.862846016883850
0.035681001842022 0.031847000122070 0.862389028072357
0.035234998911619 0.041965000331402 0.860767006874084
0.035583000630140 0.047127999365330 0.860448002815247
0.027388000860810 0.047828000038862 0.860547006130219
0.028308000415564 0.033992998301983 0.861019015312195
0.033475000411272 0.037843998521566 0.860574007034302
0.033463999629021 0.045667998492718 0.860177993774414
0.023617999628186 0.043129999190569 0.860417008399963
0.037328001111746 0.022012999281287 0.860682010650635
0.023381000384688 0.034572001546621 0.860737979412079
0.023303000256419 0.037542998790741 0.860509991645813
0.034593001008034 0.027752999216318 0.860476016998291
0.038008999079466 0.025828000158072 0.860239982604980
0.032085001468658 0.016273999586701 0.860673010349274
0.033312000334263 0.034471999853849 0.860014975070953
0.029495000839233 0.023220999166369 0.858600020408630
0.026527000591159 0.030029999092221 0.858298003673553
0.036538001149893 0.043524999171495 0.856519997119904
0.032620001584291 0.045582998543978 0.856473028659821
0.031644001603127 0.032021999359131 0.857047975063324
0.035487998276949 0.046326998621225 0.856064021587372
0.027692999690771 0.047685001045465 0.855755984783173
0.034212999045849 0.028039999306202 0.856059014797211
0.037994999438524 0.022401999682188 0.856028020381927
0.023522999137640 0.042998999357224 0.855714023113251
0.023328000679612 0.036922998726368 0.855899989604950
0.037246000021696 0.027608999982476 0.855699002742767
0.031872998923063 0.017492000013590 0.855966985225677
0.033727001398802 0.037946000695229 0.854901015758514
0.041593000292778 0.021747000515461 0.855032026767731
0.029918000102043 0.022825999185443 0.855000972747803
0.034366000443697 0.015964999794960 0.852528989315033
0.039064001291990 0.017640000209212 0.852168023586273
0.023265000432730 0.037071999162436 0.851696014404297
0.031644999980927 0.047267001122236 0.850802004337311
0.025893999263644 0.045944001525640 0.850817024707794
0.036501999944448 0.045469999313354 0.850202023983002
0.023894999176264 0.042982999235392 0.850687980651855
0.037199001759291 0.027394000440836 0.850763976573944
0.036265000700951 0.042908001691103 0.850046992301941
0.037340998649597 0.013348000124097 0.850753009319305
0.031885001808405 0.032795000821352 0.850381970405579
0.034770000725985 0.027876000851393 0.850288987159729
0.031952001154423 0.012582999654114 0.850718021392822
0.036704000085592 0.024421000853181 0.850261986255646
0.021962000057101 0.034249000251293 0.850304007530212
0.031810000538826 0.037519998848438 0.849795997142792
0.031362999230623 0.021973000839353 0.850256979465485
0.040729001164436 0.021875999867916 0.849856019020081
0.034428000450134 0.009654999710619 0.850229024887085
0.038031999021769 0.038414999842644 0.847142994403839
0.030527999624610 0.042405001819134 0.846948027610779
0.037255998700857 0.042192999273539 0.845834016799927
0.026088999584317 0.046048000454903 0.845709979534149
0.038214001804590 0.024077000096440 0.845910012722015
0.030641999095678 0.047311998903751 0.845197021961212
0.035415999591351 0.027396000921726 0.845870971679688
0.023901000618935 0.042824000120163 0.845584988594055
0.040203001350164 0.022460000589490 0.845726013183594
0.022879000753164 0.038010999560356 0.845781981945038
0.035764999687672 0.046353001147509 0.844896018505096
0.031652998179197 0.022345000877976 0.846033990383148
0.032446999102831 0.038984999060631 0.845291972160339
0.035760998725891 0.031948000192642 0.845282018184662
0.038339998573065 0.019633999094367 0.845386028289795
0.027641000226140 0.031270001083612 0.845350980758667
0.023710999637842 0.033378999680281 0.845175027847290
0.033022001385689 0.016096999868751 0.845107972621918
0.031923998147249 0.047855000942945 0.842064023017883
0.033326998353004 0.039836999028921 0.841872990131378
0.038988001644611 0.041514001786709 0.841255009174347
0.035629000514746 0.047685999423265 0.840699970722198
0.032141998410225 0.012109999544919 0.842097997665405
0.038385000079870 0.037271000444889 0.840641021728516
0.036063998937607 0.032209999859333 0.840951025485992
0.038114998489618 0.018835999071598 0.841255009174347
0.037618998438120 0.024050999432802 0.841095983982086
0.026055999100208 0.046153001487255 0.840584993362427
0.023786999285221 0.043122999370098 0.840632975101471
0.023227000609040 0.037767998874187 0.840833008289337
0.033000998198986 0.027529999613762 0.840745985507965
0.022266000509262 0.033489000052214 0.840833008289337
0.030458999797702 0.024670999497175 0.840654015541077
0.031771998852491 0.017573000863194 0.840449988842010
0.038756001740694 0.024762999266386 0.839753985404968
0.033507000654936 0.027698000892997 0.837215006351471
0.031773000955582 0.048608999699354 0.835996985435486
0.039142001420259 0.042110998183489 0.835954010486603
0.035456001758575 0.047258999198675 0.835572004318237
0.025955999270082 0.045935999602079 0.835731983184814
0.037723001092672 0.031865999102592 0.835856974124908
0.022394999861717 0.034017998725176 0.836225986480713
0.038876999169588 0.036889001727104 0.835494995117188
0.037611998617649 0.022295000031590 0.836043000221252
0.038656000047922 0.025490999221802 0.835771977901459
0.024125000461936 0.042892999947071 0.835501015186310
0.031007999554276 0.019472999498248 0.835743010044098
0.023117000237107 0.037748001515865 0.835318982601166
0.030220000073314 0.023959999904037 0.835578024387360
0.038515999913216 0.041896998882294 0.831615984439850
0.035548001527786 0.046558000147343 0.830980002880096
0.032999001443386 0.047779001295567 0.830802977085114
0.027777999639511 0.047336000949144 0.830523014068604
0.042468000203371 0.032136000692844 0.830340027809143
0.037503998726606 0.024544000625610 0.830824971199036
0.037259001284838 0.030717000365257 0.830492973327637
0.030298000201583 0.023660000413656 0.831001996994019
0.023485999554396 0.033084001392126 0.830886006355286
0.023749999701977 0.041471000760794 0.830433011054993
0.043451998382807 0.029687000438571 0.829851984977722
0.037330001592636 0.026326000690460 0.830038011074066
0.022328000515699 0.036067999899387 0.830056011676788
0.037002999335527 0.032774001359940 0.826443016529083
0.042328000068665 0.017595000565052 0.826255977153778
0.024259999394417 0.029132999479771 0.826654970645905
0.023105999454856 0.036660000681877 0.825829982757568
0.023724999278784 0.042789001017809 0.825419008731842
0.043418999761343 0.022013999521732 0.825197994709015
0.023969000205398 0.032761998474598 0.825572013854980
0.030174000188708 0.021764999255538 0.825635015964508
0.015698000788689 0.037663999944925 0.822089016437531
0.037161998450756 0.042350001633167 0.820767998695374
0.037707000970840 0.036878000944853 0.820531010627747
0.038821998983622 0.031640999019146 0.820527970790863
0.029958000406623 0.021988000720739 0.821211993694305
0.040658999234438 0.016488999128342 0.820865988731384
0.022871999070048 0.037539001554251 0.820792019367218
0.041758000850677 0.021309999749064 0.820478975772858
0.023794999346137 0.033156000077724 0.820635974407196
0.023229999467731 0.026558000594378 0.820737004280090
0.039629999548197 0.030471000820398 0.816017985343933
0.038150999695063 0.037353001534939 0.815506994724274
0.037422001361847 0.042328998446465 0.815274000167847
0.018488999456167 0.033668998628855 0.816250979900360
0.040274001657963 0.017898999154568 0.815732002258301
0.042840000241995 0.021880999207497 0.815370023250580
0.040105998516083 0.026218000799417 0.815379023551941
0.039848998188972 0.032924998551607 0.815032005310059
0.037179999053478 0.043191999197006 0.811020016670227
0.041320998221636 0.026859000325203 0.811137020587921
0.039058998227119 0.037758000195026 0.810652971267700
0.043306998908520 0.022167000919580 0.810943007469177
0.039836999028921 0.032437000423670 0.810463011264801
0.040715999901295 0.017410000786185 0.810603976249695
0.037115998566151 0.013598999939859 0.810522973537445
0.040256999433041 0.031585000455379 0.807669997215271
0.036044001579285 0.013898000121117 0.807344973087311
0.041331000626087 0.027088999748230 0.806371986865997
0.043434001505375 0.022007999941707 0.805501997470856
0.041328001767397 0.018278999254107 0.805685997009277
0.039751000702381 0.016455000266433 0.805567979812622
0.033064998686314 0.013593999668956 0.805787980556488
0.027604000642896 0.017264999449253 0.805528998374939
0.035433001816273 0.045850999653339 0.802076995372772
0.032356999814510 0.047239001840353 0.801993012428284
0.043173000216484 0.022297000512481 0.800751984119415
0.040920998901129 0.018228000029922 0.800638973712921
0.039370998740196 0.016067000105977 0.800701975822449
0.036997001618147 0.014162999577820 0.800655007362366
0.028062000870705 0.017488999292254 0.800678014755249
0.033596001565456 0.012800999917090 0.800364017486572
0.032722998410463 0.012965999543667 0.796379029750824
0.043078999966383 0.022526999935508 0.795584976673126
0.040486998856068 0.017191000282764 0.795589029788971
0.036361999809742 0.013859000056982 0.795623004436493
0.028021000325680 0.017528999596834 0.795722007751465
0.040573000907898 0.038995999842882 0.790633976459503
0.043024998158216 0.022152999415994 0.790538012981415
0.040901999920607 0.017525000497699 0.790745973587036
0.036074999719858 0.013969000428915 0.790778994560242
0.024318000301719 0.026839999482036 0.790790975093842
0.027776999399066 0.017232999205589 0.790802001953125
0.031143000349402 0.013160999864340 0.790606021881104
0.041149999946356 0.037392999976873 0.787474989891052
0.042668998241425 0.033872999250889 0.785781979560852
0.043965999037027 0.027242999523878 0.785847008228302
0.043108999729156 0.022405000403523 0.785723984241486
0.039856001734734 0.039760999381542 0.785170018672943
0.040890000760555 0.017441000789404 0.785538971424103
0.036394000053406 0.014155999757349 0.785547018051147
0.025361999869347 0.021647000685334 0.785767018795013
0.031293999403715 0.013476000167429 0.785587012767792
0.027623999863863 0.017374999821186 0.785248994827271
0.043965999037027 0.027194000780582 0.780888974666595
0.043177001178265 0.022383000701666 0.780650019645691
0.036219000816345 0.013927999883890 0.781091988086700
0.041212998330593 0.017704000696540 0.780763983726501
0.031307000666857 0.013340000063181 0.780640006065369
0.027638999745250 0.017446000128984 0.780610978603363
0.041579999029636 0.017815999686718 0.776385009288788
0.033174000680447 0.012428999878466 0.776648998260498
0.043117001652718 0.022182000800967 0.775591015815735
0.037135001271963 0.013425000011921 0.775936007499695
0.027463000267744 0.017078999429941 0.775700986385345
0.041232001036406 0.016635000705719 0.770539999008179
0.037090998142958 0.013036999851465 0.770810008049011
0.027301000431180 0.016963999718428 0.770731985569000
0.032249998301268 0.012148000299931 0.770557999610901
0.031644999980927 0.007079000119120 0.767962992191315
0.041749000549316 0.018039999529719 0.766682028770447
0.037195000797510 0.012931000441313 0.765929996967316
0.032067999243736 0.012384999543428 0.765681028366089
0.027424000203609 0.016557000577450 0.765419006347656
0.041517999023199 0.017525000497699 0.760932028293610
0.037200000137091 0.013224000111222 0.760637998580933
0.031148999929428 0.013220000080764 0.760406970977783
0.033151999115944 0.012478999793530 0.757149994373322
0.031950000673532 0.036763999611139 0.742488980293274
0.032653000205755 0.042594000697136 0.740531980991364
0.030511999502778 0.013129999861121 0.735603988170624
0.035987000912428 0.013793000020087 0.730574011802673
0.024573000147939 0.045081999152899 0.720426023006439
0.027984000742435 0.041992999613285 0.716072976589203
0.041905999183655 0.027885999530554 0.715596973896027
0.023726999759674 0.032547999173403 0.715609014034271
0.039367001503706 0.041574999690056 0.711889982223511
0.025445999577641 0.037996999919415 0.712661981582642
0.022004999220371 0.037631999701262 0.712148010730743
0.039972998201847 0.037661999464035 0.710793018341064
0.041792001575232 0.027701999992132 0.710698008537292
0.028093999251723 0.043010998517275 0.710344970226288
0.024399999529123 0.021150000393391 0.710487008094788
0.015892000868917 0.023076999932528 0.707340002059937
0.024512000381947 0.039714001119137 0.705730974674225
0.042072001844645 0.027639999985695 0.705386996269226
0.014235000126064 0.021576000377536 0.706456005573273
0.024318000301719 0.021020000800490 0.705561995506287
0.015294999815524 0.014667999930680 0.705147027969360
0.020422000437975 0.018118999898434 0.704802989959717
0.028390999883413 0.012091999873519 0.702870011329651
0.020712999626994 0.035985998809338 0.700685977935791
0.042174000293016 0.022670999169350 0.700118005275726
0.024602999910712 0.021128999069333 0.700738012790680
0.016637999564409 0.017514999955893 0.700861990451813
0.019814999774098 0.019548000767827 0.700267970561981
0.018417000770569 0.011908999644220 0.699833989143372
0.042250998318195 0.011849000118673 0.696996986865997
0.023424999788404 0.037618998438120 0.695854008197784
0.040320001542568 0.009290000423789 0.695533990859985
0.024033999070525 0.020988000556827 0.695996999740601
0.018479999154806 0.015752000734210 0.696233987808228
0.020221000537276 0.008701000362635 0.695908010005951
0.019751999527216 0.011845000088215 0.695497989654541
0.022165000438690 0.017472999170423 0.695091009140015
0.023214999586344 0.035884998738766 0.691923975944519
0.020400000736117 0.016729999333620 0.691435992717743
0.025507999584079 0.038350999355316 0.690392017364502
0.038577001541853 0.007683000061661 0.690607011318207
0.022557999938726 0.009444000199437 0.690311014652252
0.026771999895573 0.038430001586676 0.686877012252808
0.024380000308156 0.009290999732912 0.687720000743866
0.023010000586510 0.013857999816537 0.687354981899261
0.037310000509024 0.008174000307918 0.686761975288391
0.024237999692559 0.036214001476765 0.685678005218506
0.038215998560190 0.012334000319242 0.685329973697662
0.036196999251842 0.008861999958754 0.684009015560150
0.025932999327779 0.038047000765800 0.680836975574493
0.022556999698281 0.033411998301744 0.680696010589600
0.037464998662472 0.013047000393271 0.680577993392944
0.024616999551654 0.036391001194715 0.680293977260590
0.023132000118494 0.017039999365807 0.680885016918182
0.024498000741005 0.036352001130581 0.677053987979889
0.027713999152184 0.013345000334084 0.677672982215881
0.025713000446558 0.038038998842239 0.675526022911072
0.022476999089122 0.033420998603106 0.675655007362366
0.037358999252319 0.013236000202596 0.675603985786438
0.031746000051498 0.011295000091195 0.675791978836060
0.021004000678658 0.027148999273777 0.675534009933472
0.025389999151230 0.015550999902189 0.675702989101410
0.022563999518752 0.019486999139190 0.675565004348755
0.025996999815106 0.038430999964476 0.670974016189575
0.022693999111652 0.033250998705626 0.670765995979309
0.023053999990225 0.019401000812650 0.671181023120880
0.025836000218987 0.016270000487566 0.671114027500153
0.030689999461174 0.013926999643445 0.670759975910187
0.021097000688314 0.027165999636054 0.670709013938904
0.034295998513699 0.007594000082463 0.670352995395660
0.024630999192595 0.036093000322580 0.669776976108551
0.022608000785112 0.020855000242591 0.669676005840302
0.028968000784516 0.040461998432875 0.666265010833740
0.034389998763800 0.010359999723732 0.666624009609222
0.031054999679327 0.015549000352621 0.666468977928162
0.021872000768781 0.027498999610543 0.666243016719818
0.026130000129342 0.037572000175714 0.665473997592926
0.023166999220848 0.032384999096394 0.665574014186859
0.023886000737548 0.020583000034094 0.665616989135742
0.027753999456763 0.017072999849916 0.665377974510193
0.041103001683950 0.023060999810696 0.660731017589569
0.023903999477625 0.032019000500441 0.660974979400635
0.032763000577688 0.017230000346899 0.660845994949341
0.038830999284983 0.019759999588132 0.660287022590637
0.028248999267817 0.017733000218868 0.660531997680664
0.024429999291897 0.021453000605106 0.660562992095947
0.023072000592947 0.027422999963164 0.660363018512726
0.024221999570727 0.031805999577045 0.655640006065369
0.023311000317335 0.027411999180913 0.655610978603363
0.028674999251962 0.017449999228120 0.655689001083374
0.024846000596881 0.021336000412703 0.655605971813202
0.024274000898004 0.031856998801231 0.650664985179901
0.023222999647260 0.027309000492096 0.650560975074768
0.024428000673652 0.031748000532389 0.645828008651733
0.024678999558091 0.031778000295162 0.625671982765198
0.040196999907494 0.026353999972343 0.610580980777740
0.040174998342991 0.026461999863386 0.605701029300690
0.040119998157024 0.026023000478745 0.600517988204956
0.040270000696182 0.026061000302434 0.595701992511749
0.039978999644518 0.022709000855684 0.592697978019714
0.040320999920368 0.026001000776887 0.590596973896027
0.040054999291897 0.023009000346065 0.586160004138947
0.040382999926805 0.025795999914408 0.585533022880554
0.038775000721216 0.019783999770880 0.585520029067993
0.035487998276949 0.015375000424683 0.585532009601593
0.040421999990940 0.026156000792980 0.580703020095825
0.040105998516083 0.022665999829769 0.580388009548187
0.037110999226570 0.014445999637246 0.580811023712158
0.037096999585629 0.017562000080943 0.580500006675720
0.023896999657154 0.031502000987530 0.580569028854370
0.033629000186920 0.038683999329805 0.576833009719849
0.040329001843929 0.025953000411391 0.575577974319458
0.038867998868227 0.019765999168158 0.575640022754669
0.036033000797033 0.015204000286758 0.575878977775574
0.040181998163462 0.022926000878215 0.575143992900848
0.022197000682354 0.025856999680400 0.575640022754669
0.030949000269175 0.014077999629080 0.575577974319458
0.035990998148918 0.013712000101805 0.572769999504089
0.035718999803066 0.036692999303341 0.570753991603851
0.031622000038624 0.038254000246525 0.570787012577057
0.039191998541355 0.031523998826742 0.570703983306885
0.027682999148965 0.015788000077009 0.571837007999420
0.040190998464823 0.026017999276519 0.570572018623352
0.027369000017643 0.036049999296665 0.570707976818085
0.040456999093294 0.022646000608802 0.570396006107330
0.037716001272202 0.017541000619531 0.570721983909607
0.023656999692321 0.031916998326778 0.570685982704163
0.022463999688625 0.021428000181913 0.570702016353607
0.021995000541210 0.027519000694156 0.570318996906281
0.023810999467969 0.017207000404596 0.570587992668152
0.023302000015974 0.020248999819160 0.567573010921478
0.026260999962687 0.012713000178337 0.567471027374268
0.036292001605034 0.035627000033855 0.565931022167206
0.039117000997066 0.031580999493599 0.565925002098083
0.031821999698877 0.037758998572826 0.565515995025635
0.040233001112938 0.026455000042915 0.565550029277802
0.027521999552846 0.035728998482227 0.565612018108368
0.040477000176907 0.022483000531793 0.565353989601135
0.037441000342369 0.017311999574304 0.565528988838196
0.023770000785589 0.031787000596523 0.565512001514435
0.021471999585629 0.027124999091029 0.565429985523224
0.023173000663519 0.017272999510169 0.565739989280701
0.025666000321507 0.016752999275923 0.565343976020813
0.037514999508858 0.013260000385344 0.564634025096893
0.032752998173237 0.013217000290751 0.564631998538971
0.033789999783039 0.012106999754906 0.564092993736267
0.021240999922156 0.022305000573397 0.563610970973969
0.031458999961615 0.037872001528740 0.560728013515472
0.035514999181032 0.035463001579046 0.560530006885529
0.040545001626015 0.026325000450015 0.560639023780823
0.027427000924945 0.035822000354528 0.560855984687805
0.038981001824141 0.012273999862373 0.560971975326538
0.037948999553919 0.032988000661135 0.560066998004913
0.023648999631405 0.031869001686573 0.560672998428345
0.037374000996351 0.017396999523044 0.560416996479034
0.041767001152039 0.021789999678731 0.559866011142731
0.021062999963760 0.027297999709845 0.560679972171783
0.027806000784039 0.011796000413597 0.560742974281311
0.022936999797821 0.016860000789165 0.560567021369934
0.033755999058485 0.011822000145912 0.558592021465302
0.038924001157284 0.032372001558542 0.556735992431641
0.021307000890374 0.017937000840902 0.557785987854004
0.024244999513030 0.012833000160754 0.557654976844788
0.037271000444889 0.017537999898195 0.556743025779724
0.041358001530170 0.026829000562429 0.556041002273560
0.031309999525547 0.037523001432419 0.555608987808228
0.036003999412060 0.035546001046896 0.555383980274200
0.027168000116944 0.035762000828981 0.555405020713806
0.023225000128150 0.032267000526190 0.555629014968872
0.037932999432087 0.032660000026226 0.551299989223480
0.040045000612736 0.032287001609802 0.551106989383698
0.031445998698473 0.037236001342535 0.550563991069794
0.035964000970125 0.035904001444578 0.550273001194000
0.027329999953508 0.035537999123335 0.550705015659332
0.023011999204755 0.032749999314547 0.550722002983093
0.032878000289202 0.036249000579119 0.545714020729065
0.036763999611139 0.036942001432180 0.545372009277344
0.027009999379516 0.035739999264479 0.545608997344971
0.022969000041485 0.033006001263857 0.545459985733032
0.032857999205589 0.036297999322414 0.540570020675659
0.027234999462962 0.036019999533892 0.540520012378693
0.031205000355840 0.036102999001741 0.535570025444031
0.034499999135733 0.034713000059128 0.535103976726532
0.027036000043154 0.035859998315573 0.535371005535126
0.034807000309229 0.034593999385834 0.530597984790802
0.031069999560714 0.036205001175404 0.530712008476257
0.027177000418305 0.035254001617432 0.530727028846741
0.039372000843287 0.016193000599742 0.526844024658203
0.031042000278831 0.035580001771450 0.526033997535706
0.038263000547886 0.031177999451756 0.525761008262634
0.040688000619411 0.022584000602365 0.526001989841461
0.040155000984669 0.026246000081301 0.525614976882935
0.039907000958920 0.018986999988556 0.525470972061157
0.026312999427319 0.007716999854892 0.526540994644165
0.031475000083447 0.001836000010371 0.525924026966095
0.030919000506401 -0.000455000001239 0.524125993251801
0.030872000381351 0.001485000015236 0.522821009159088
0.028603000566363 0.001460000057705 0.520403027534485
0.028952000662684 0.002594999969006 0.516156971454620
0.020527999848127 0.018241999670863 0.515716016292572
0.022541999816895 0.013341000303626 0.515464007854462
0.020684000104666 0.018489999696612 0.510681986808777
0.022549999877810 0.013330999761820 0.510616004467010
0.037827998399734 0.017647000029683 0.495671987533569
0.028021000325680 -0.001203999971040 0.486173003911972
0.019773000851274 0.017881000414491 0.480738997459412
0.037657000124454 0.017536999657750 0.475621998310089
0.019804999232292 0.018007000908256 0.475789994001389
0.037514001131058 0.017442999407649 0.470838010311127
0.036123000085354 0.013105000369251 0.465496987104416
0.025585999712348 0.028903000056744 0.445472002029419
0.025084000080824 0.028555000200868 0.437050014734268
0.033176001161337 0.028449000790715 0.435636013746262
0.030135000124574 0.031592000275850 0.435571998357773
0.038203001022339 0.017465999349952 0.435494989156723
0.020039999857545 0.024698000401258 0.435400009155273
0.018978999927640 0.022771000862122 0.435252010822296
0.026116000488400 0.025066999718547 0.431205004453659
0.037367001175880 0.012734999880195 0.430801987648010
0.038281999528408 0.017653999850154 0.430498987436295
0.032579999417067 0.006978999823332 0.430768013000488
0.024468999356031 0.023250000551343 0.429838985204697
0.033959999680519 0.020267000421882 0.427139997482300
0.038582999259233 0.017461000010371 0.426391005516052
0.037386998534203 0.012958000414073 0.425381004810333
0.032260999083519 0.007244999986142 0.425429999828339
0.018562000244856 0.022237999364734 0.425511002540588
0.038807999342680 0.017342999577522 0.422298997640610
0.037601999938488 0.012923999689519 0.420798003673553
0.030182000249624 0.005861999932677 0.421097010374069
0.035124998539686 0.008262000046670 0.420668005943298
0.025505999103189 0.004358000122011 0.420920014381409
0.018339000642300 0.022066000849009 0.420630007982254
0.017185999080539 0.018384000286460 0.417335003614426
0.035192001610994 0.008070999756455 0.415809988975525
0.026972999796271 0.006614000070840 0.416171997785568
0.018247000873089 0.022111000493169 0.415600985288620
0.033087998628616 0.006169999949634 0.411698013544083
0.035539999604225 0.007935999892652 0.410685002803802
0.018402000889182 0.021776000037789 0.410699009895325
0.026380000635982 0.006440999917686 0.410663008689880
0.017271000891924 0.015967000275850 0.410721004009247
0.032825998961926 0.005210999865085 0.407184988260269
0.018557999283075 0.021857999265194 0.405692011117935
0.027459999546409 0.006595000158995 0.405346989631653
0.032287999987602 0.004654999822378 0.400723993778229
0.027253000065684 0.006506000179797 0.400813996791840
0.018162999302149 0.022241000086069 0.400507003068924
0.025690000504255 0.008833000436425 0.397554010152817
0.037128001451492 0.027409000322223 0.395729005336761
0.040095999836922 0.022468000650406 0.395695000886917
0.040844000875950 0.017438000068069 0.395785003900528
0.021694999188185 0.028382999822497 0.396506994962692
0.032200999557972 0.031589999794960 0.395456999540329
0.025337999686599 0.030073000118136 0.395705997943878
0.016927000135183 0.018038000911474 0.396632999181747
0.039850000292063 0.011828999966383 0.390697985887527
0.037333998829126 0.007670000195503 0.390675008296967
0.016859000548720 0.017305999994278 0.390659987926483
0.039260998368263 0.011543000116944 0.385558992624283
0.017269000411034 0.017658000811934 0.386444002389908
0.018178999423981 0.022135000675917 0.385556012392044
0.038401998579502 0.023617999628186 0.382331997156143
0.039140999317169 0.017191000282764 0.370835006237030
0.019231999292970 0.021863000467420 0.365671008825302
0.038624998182058 0.017147000879049 0.350454002618790
0.038291998207569 0.018425000831485 0.325516998767853
0.035197999328375 0.008062000386417 0.309967011213303
0.021710999310017 -0.002739999908954 0.308517009019852
0.027496000751853 0.001785999978893 0.307814002037048
0.025468999519944 0.032001998275518 0.306116998195648
0.021138999611139 0.000384999992093 0.307610005140305
0.025533000007272 0.029596999287605 0.305732995271683
0.018171999603510 -0.001811000052840 0.307590991258621
0.017055999487638 0.003021999960765 0.305281013250351
0.014271999709308 -0.005270000081509 0.305348008871078
0.025351999327540 0.029244000092149 0.300734996795654
0.012454999610782 -0.001069999998435 0.302661985158920
0.012930000200868 0.002612000098452 0.301867991685867
0.012934000231326 -0.005874999798834 0.301665008068085
0.017090000212193 0.006918999832124 0.301328003406525
0.012853999622166 0.004765999969095 0.300175994634628
0.016454000025988 0.008399999700487 0.296162992715836
0.013439999893308 0.003695999970660 0.296378999948502
0.016435999423265 0.006105999927968 0.293489992618561
0.016579000279307 0.002995999995619 0.292353004217148
0.030572000890970 0.005504000000656 0.290647000074387
0.020553000271320 0.004782999865711 0.290385007858276
0.026993999257684 0.004949999973178 0.289146989583969
0.021293999627233 0.006574000231922 0.287499994039536
0.027739999815822 0.003930000122637 0.286339014768600
0.018943000584841 0.008488999679685 0.276818990707397
0.040256999433041 0.015359999611974 0.270915001630783
0.032928001135588 0.006041000131518 0.271697998046875
0.019384000450373 0.011384000070393 0.265713989734650
0.035700999200344 0.007540000136942 0.240703999996185
0.037092998623848 0.023630000650883 0.231852993369102
0.025140000507236 0.004304999951273 0.231101006269455
0.041430998593569 0.026830999180675 0.225712999701500
0.042300999164581 0.027534000575542 0.220849007368088
0.023215999826789 0.025453999638557 0.220412999391556
0.046385999768972 0.011982000432909 0.215774998068810
0.021530000492930 0.027743000537157 0.216766998171806
0.049486000090837 0.012081000022590 0.212373003363609
0.044360000640154 0.007433999795467 0.213578000664711
0.047338999807835 0.006386000197381 0.212468996644020
0.051924001425505 0.016170000657439 0.210348993539810
0.051387999206781 0.010014999657869 0.210201993584633
0.047338999807835 0.002975000068545 0.210777997970581
0.050843998789787 0.003572999965400 0.209848999977112
0.052592001855373 0.006434999871999 0.209207996726036
0.053916998207569 0.011570000089705 0.207773000001907
0.052629999816418 0.016303999349475 0.206679999828339
0.054884999990463 0.011435000225902 0.205906003713608
0.051679000258446 0.002836999949068 0.206929996609688
0.048475001007318 0.004931000061333 0.207512006163597
0.054967001080513 0.006122999824584 0.205597996711731
0.047279998660088 0.001235999981873 0.206284999847412
0.056653998792171 0.007193000055850 0.202353999018669
0.026729000732303 -0.001667000004090 0.206248998641968
0.046581000089645 0.013439999893308 0.199742004275322
0.045258000493050 0.013651000335813 0.197717994451523
0.038244001567364 0.011679000221193 0.190634995698929
0.040885999798775 0.009021000005305 0.187438994646072
0.035503000020981 0.004999000113457 0.180249005556107
0.036391999572515 0.005874999798834 0.175307005643845
0.039985001087189 0.011319999583066 0.155524998903275
0.012551999650896 -0.018474999815226 0.158769994974136
0.015564999543130 -0.017074000090361 0.156818002462387
0.037411000579596 0.012434000149369 0.151109993457794
0.037576999515295 0.008232999593019 0.150428995490074
0.012036999687552 -0.019133999943733 0.152888000011444
0.017408000305295 -0.012532999739051 0.152903005480766
0.002797999884933 -0.018501000478864 0.152016997337341
0.002355000004172 -0.013346999883652 0.152339994907379
0.013380999676883 -0.013454000465572 0.151696994900703
0.006568999961019 -0.013828000053763 0.151935994625092
0.007234999909997 -0.022515000775456 0.150750994682312
0.016363000497222 -0.010014000348747 0.150500997900963
0.004302999936044 -0.008249999955297 0.151225998997688
0.033856999129057 0.013793000020087 0.146809995174408
0.003460000036284 -0.023221999406815 0.147622004151344
0.020515000447631 -0.006926000118256 0.147167995572090
0.012269999831915 -0.007778999861330 0.147121995687485
0.024234000593424 0.008469000458717 0.145581007003784
0.016684999689460 -0.008303999900818 0.146575003862381
0.004310000222176 -0.016527999192476 0.146344006061554
0.007335000205785 -0.008984000422060 0.146760001778603
0.011865999549627 -0.020639000460505 0.144133001565933
0.008070999756455 -0.004736999981105 0.145101994276047
0.024491999298334 0.000407999992603 0.142739996314049
0.022127000615001 -0.004056999925524 0.141996994614601
0.017227999866009 -0.006455999799073 0.142536997795105
0.022315999493003 0.012835999950767 0.140983000397682
0.016183000057936 -0.003723999951035 0.141876995563507
0.011780000291765 -0.003113999962807 0.141798004508018
0.008182999677956 -0.003652000101283 0.141445994377136
0.025554999709129 -0.000268000003416 0.139272004365921
0.008743000216782 -0.005950000137091 0.140248000621796
0.022560000419617 -0.003959000110626 0.135710999369621
0.013326999731362 -0.001554999966174 0.136289000511169
0.017264999449253 -0.002400999888778 0.135621994733810
0.022453999146819 -0.002632000017911 0.131298005580902
0.013482999987900 -0.000594999990426 0.131209000945091
0.018087999895215 -0.001642000046559 0.130613997578621
0.025434000417590 -0.000646999978926 0.126796007156372
0.027102999389172 0.001587999984622 0.125561997294426
0.013856999576092 -0.000702999997884 0.126764997839928
0.021254999563098 -0.000180999995791 0.125618994235992
0.017524000257254 -0.000357000011718 0.125782996416092
0.035091001540422 0.010685999877751 0.118616998195648
0.021239999681711 0.001001000055112 0.120359003543854
0.016729999333620 -0.000044000000344 0.120627000927925
0.034664001315832 0.013690000399947 0.115774996578693
0.021407000720501 0.001957000000402 0.115918003022671
0.017870999872684 0.001104000024498 0.115953996777534
0.044661000370979 0.013272999785841 0.106245003640652
0.021471999585629 0.002538000000641 0.111227996647358
0.021449999883771 0.002725000027567 0.107193000614643
0.060315001755953 0.011277999728918 0.087300002574921
0.058416001498699 0.013938000425696 0.086714997887611
0.059177998453379 0.009406000375748 0.085357002913952
0.060148000717163 0.012543999589980 0.082699000835419
0.056253001093864 0.016857000067830 0.082471996545792
0.057574000209570 0.007755000144243 0.081220000982285
0.053316999226809 0.018846999853849 0.081459000706673
0.054754000157118 0.009446999989450 0.079594999551773
0.049991998821497 0.020887000486255 0.080251000821590
0.056138999760151 0.012942999601364 0.077531002461910
0.055160999298096 0.019135000184178 0.076696999371052
0.052069000899792 0.021643999963999 0.076301999390125
0.077114000916481 -0.000345999986166 0.055047001689672
0.053452998399734 0.017187999561429 0.075360998511314
0.077335998415947 -0.000627000001259 0.051635000854731
0.075300000607967 0.001749000046402 0.052838999778032
0.052377000451088 0.010184999555349 0.074753999710083
0.044461999088526 0.023271000012755 0.076420001685619
0.047060001641512 0.024193000048399 0.074401997029781
0.048969998955727 0.004191999789327 0.076898999512196
0.046059001237154 0.019624000415206 0.076241999864578
0.074680000543594 -0.002231999998912 0.051979001611471
0.049052998423576 0.005468000192195 0.076127000153065
0.051228001713753 0.022745000198483 0.071029998362064
0.027143999934196 0.000245000002906 0.085959002375603
0.050085000693798 0.025815999135375 0.070137001574039
0.051238000392914 0.018036000430584 0.070240996778011
0.046638999134302 0.025899000465870 0.070695996284485
0.071717999875546 0.005557000171393 0.050618000328541
0.019042000174522 0.005051000043750 0.085502997040749
0.042707998305559 0.027200000360608 0.071304999291897
0.050627999007702 0.024577999487519 0.066517002880573
0.050177998840809 0.027419000864029 0.065174996852875
0.058951999992132 0.028279999271035 0.056814998388290
0.049841001629829 0.015939999371767 0.068746998906136
0.060077000409365 0.029394999146461 0.054476998746395
0.048114001750946 0.026515999808908 0.065502002835274
0.068676002323627 0.009584000334144 0.049681998789310
0.049768000841141 0.021037999540567 0.065736003220081
0.069098003208637 0.003787999972701 0.048982001841068
0.060474999248981 0.029797999188304 0.051254000514746
0.053093001246452 0.031993001699448 0.057590998709202
0.055025998502970 0.031350001692772 0.055424001067877
0.047548998147249 0.030809000134468 0.062157999724150
0.050944998860359 0.028714999556541 0.060417998582125
0.057960998266935 0.032319001853466 0.051605001091957
0.055752001702785 0.036811999976635 0.050590999424458
0.030119000002742 0.010995999909937 0.077361002564430
0.024249000474811 0.006053000222892 0.079723998904228
0.042282000184059 0.028604000806808 0.065861999988556
0.066460996866226 0.012365000322461 0.047566000372171
0.048250999301672 0.014959000051022 0.064875997602940
0.056407000869513 0.036683999001980 0.047058999538422
0.059386000037193 0.033613000065088 0.045584000647068
0.021399000659585 0.033854000270367 0.071359001100063
0.063744001090527 0.012520999647677 0.049635000526905
0.065261997282505 0.008963000029325 0.047871999442577
0.026132000610232 0.008346999995410 0.076664999127388
0.060198999941349 0.030326999723911 0.045655999332666
0.057172998785973 0.027814999222755 0.050767000764608
0.051477000117302 0.028214000165462 0.056180000305176
0.048358999192715 0.025615999475121 0.060058001428843
0.018464000895619 0.024591999128461 0.075204998254776
0.042167998850346 0.031293001025915 0.061834000051022
0.049387998878956 0.020618999376893 0.060632999986410
0.037117999047041 0.029551999643445 0.065457999706268
0.052338000386953 0.034148000180721 0.051010999828577
0.046369999647141 0.016775000840425 0.063528001308441
0.048078000545502 0.032028000801802 0.055835999548435
0.040621001273394 0.001641000038944 0.069242000579834
0.044888999313116 0.011533999815583 0.064815998077393
0.037409998476505 0.036313001066446 0.060111001133919
0.060371000319719 0.021237000823021 0.047076001763344
0.061618000268936 0.016271000728011 0.047077000141144
0.057904999703169 0.027589999139309 0.046020001173019
0.017999999225140 0.027064999565482 0.071892999112606
0.043816000223160 0.014290999621153 0.063010998070240
0.036157000809908 0.032460998743773 0.060819998383522
0.046891998499632 0.012667999602854 0.060642998665571
0.049203999340534 0.022841999307275 0.055622998625040
0.053869999945164 0.031463999301195 0.045977998524904
0.041405998170376 0.008930999785662 0.064782999455929
0.029734000563622 0.011834999546409 0.070416003465652
0.051371000707150 0.034866001456976 0.045795001089573
0.021809000521898 0.033404998481274 0.065843999385834
0.056577000766993 0.020627999678254 0.047123000025749
0.048441998660564 0.031153999269009 0.050237998366356
0.048096999526024 0.036382999271154 0.046868998557329
0.042157001793385 0.031268998980522 0.055342998355627
0.050475001335144 0.026020999997854 0.050856001675129
0.017824999988079 0.023211000487208 0.070074997842312
0.037000998854637 0.036357998847961 0.055296998471022
0.053514998406172 0.023772999644279 0.047749999910593
0.051164001226425 0.021739000454545 0.051089998334646
0.051125001162291 0.017219999805093 0.052409000694752
0.032242998480797 0.028819000348449 0.061255000531673
0.022718999534845 0.033440999686718 0.063055001199245
0.047979999333620 0.012245999649167 0.055959001183510
0.041912000626326 0.006039000116289 0.061562001705170
0.044667001813650 0.017071999609470 0.057310998439789
0.046574000269175 0.033119998872280 0.047896999865770
0.050037998706102 0.029715999960899 0.046369999647141
0.040499001741409 0.004298999905586 0.062148001044989
0.017900999635458 0.026886999607086 0.066091999411583
0.037595998495817 0.031156999990344 0.054875999689102
0.053978998214006 0.017449999228120 0.046636000275612
0.036037001758814 0.037896998226643 0.051518999040127
0.045520000159740 0.008274000138044 0.056834999471903
0.054951000958681 0.013925000093877 0.046399001032114
0.042596999555826 0.031670998781919 0.050367999821901
0.038536000996828 0.011040000244975 0.060986001044512
0.031915999948978 0.032042998820543 0.056990999728441
0.050246000289917 0.012993999756873 0.050783000886440
0.041521001607180 0.036977998912334 0.045618999749422
0.042612001299858 0.014347000047565 0.056118000298738
0.028463000431657 0.025629999116063 0.060405999422073
0.047805000096560 0.010366999544203 0.051915999501944
0.049175001680851 0.021890999749303 0.046748999506235
0.021681999787688 0.009111000224948 0.067276999354362
0.051286000758410 0.012461000122130 0.047515001147985
0.033939000219107 0.036557000130415 0.050420001149178
0.033711999654770 0.028170999139547 0.055121000856161
0.036844000220299 0.038417998701334 0.046153001487255
0.049166001379490 0.011056999675930 0.048896998167038
0.035114001482725 0.030261000618339 0.052643999457359
0.041627999395132 0.006382000166923 0.056065000593662
0.046971999108791 0.008205000311136 0.050319001078606
0.038805998861790 0.011738000437617 0.055688001215458
0.026820000261068 0.026529999449849 0.057135000824928
0.017815999686718 0.025830000638962 0.060428999364376
0.033080000430346 0.037156000733376 0.045977998524904
0.047885999083519 0.007555000018328 0.047279000282288
0.043689999729395 0.005195000208914 0.051238998770714
0.040343001484871 0.004308000206947 0.053298998624086
0.021943999454379 0.026754999533296 0.057280000299215
0.036515999585390 0.005650000181049 0.055493999272585
0.029853999614716 0.031381998211145 0.050223000347614
0.032244998961687 0.032334998250008 0.047584999352694
0.038035001605749 0.010648000054061 0.052554998546839
0.018190000206232 0.026249000802636 0.056993000209332
0.025351999327540 0.021580999717116 0.055059000849724
0.042328000068665 0.006262999959290 0.047651998698711
