ply
format ascii 1.0
element vertex 886
property double x
property double y
property double z
end_header
0.108039997518063 0.351547002792358 0.400741010904312
0.110040999948978 0.350612998008728 0.404161006212234
0.096952997148037 0.358862996101379 0.400011986494064
0.101641997694969 0.357659995555878 0.400810986757278
0.106830999255180 0.356276005506516 0.402310013771057
0.094348996877670 0.361450999975204 0.400092005729675
0.096235997974873 0.361954987049103 0.403100997209549
0.094627000391483 0.365579009056091 0.399650990962982
0.108231000602245 0.353906989097595 0.405470013618469
0.110981002449989 0.350850999355316 0.407216012477875
0.099569998681545 0.359627008438110 0.405743986368179
0.104295000433922 0.357156991958618 0.407519012689590
0.106086000800133 0.357955992221832 0.405510991811752
0.096735998988152 0.362057000398636 0.406940013170242
0.108230002224445 0.354220002889633 0.410268008708954
0.112924002110958 0.351969987154007 0.410811990499496
0.115806996822357 0.351954013109207 0.412532001733780
0.106091000139713 0.358271986246109 0.411798000335693
0.098163999617100 0.364392012357712 0.410401999950409
0.101135000586510 0.361194014549255 0.412541985511780
0.099122002720833 0.366555988788605 0.411267995834351
0.099628001451492 0.364684998989105 0.414682000875473
0.113752998411655 0.353790998458862 0.416970998048782
0.116201996803284 0.353624999523163 0.416893988847733
0.106907002627850 0.359239012002945 0.415877014398575
0.112102001905441 0.355654001235962 0.416510999202728
0.104065999388695 0.361618012189865 0.416253000497818
0.099639996886253 0.366553992033005 0.415955007076263
0.108064003288746 0.359674990177155 0.420749008655548
0.112354002892971 0.356934010982513 0.420666992664337
0.117360003292561 0.356106013059616 0.421366006135941
0.103850997984409 0.362839013338089 0.420475989580154
0.109053999185562 0.361779004335403 0.420832991600037
0.101346001029015 0.367179989814758 0.420751988887787
0.100977003574371 0.370526999235153 0.420053988695145
0.112007997930050 0.357899993658066 0.426407009363174
0.118217997252941 0.356528997421265 0.426492005586624
0.106671996414661 0.361871987581253 0.425812005996704
0.110030002892017 0.361057013273239 0.425729990005493
0.102784000337124 0.367089003324509 0.425415992736816
0.113899998366833 0.358341008424759 0.430564999580383
0.118660002946854 0.356954991817474 0.430687993764877
0.106955997645855 0.362127006053925 0.430693000555038
0.110591001808643 0.361645013093948 0.430391997098923
0.103067003190517 0.366232007741928 0.431939989328384
0.114134997129440 0.358211010694504 0.435568004846573
0.117971003055573 0.357850998640060 0.437458992004395
0.120364002883434 0.357053995132446 0.435759007930756
0.106771998107433 0.362783998250961 0.435885012149811
0.111068002879620 0.361238986253738 0.435752987861633
0.104741998016834 0.367128014564514 0.434769988059998
0.107784003019333 0.359674990177155 0.440809011459351
0.112544000148773 0.358249008655548 0.440858006477356
0.117741003632545 0.356247991323471 0.441170990467072
0.120238997042179 0.356743991374969 0.440703988075256
0.104791998863220 0.362250000238419 0.440535992383957
0.111175999045372 0.360913991928101 0.440465003252029
0.120149001479149 0.352703988552094 0.447394996881485
0.108511999249458 0.358197003602982 0.445755988359451
0.112874999642372 0.358658999204636 0.447522997856140
0.117741003632545 0.356667011976242 0.445372998714447
0.120357997715473 0.356447011232376 0.445531010627747
0.103517003357410 0.361102998256683 0.446271002292633
0.111527003347874 0.360029995441437 0.445246994495392
0.113693997263908 0.354472011327744 0.451804012060165
0.118500001728535 0.352613985538483 0.451108008623123
0.120933003723621 0.353731989860535 0.452336996793747
0.102383002638817 0.358792006969452 0.452913999557495
0.107732996344566 0.356873005628586 0.451829999685287
0.113821998238564 0.357387006282806 0.450500994920731
0.120714999735355 0.355800002813339 0.449995011091232
0.103306002914906 0.360597997903824 0.451402992010117
0.117045998573303 0.349537998437881 0.457168996334076
0.121890999376774 0.346771985292435 0.456818997859955
0.101643003523350 0.354391008615494 0.458137989044189
0.107083000242710 0.353522986173630 0.456822007894516
0.114372000098228 0.352625995874405 0.456070989370346
0.117246001958847 0.351980000734329 0.456577986478806
0.103256002068520 0.356577992439270 0.455873012542725
0.109545998275280 0.355596989393234 0.455718010663986
0.113205000758171 0.356561988592148 0.455395996570587
0.118262998759747 0.348461002111435 0.460397005081177
0.122267000377178 0.346071004867554 0.460819989442825
0.101015999913216 0.351668000221252 0.461629003286362
0.106322996318340 0.352827996015549 0.460785001516342
0.112464003264904 0.353020995855331 0.460492998361588
0.123420000076294 0.342413991689682 0.461973994970322
0.098056003451347 0.349032998085022 0.461636006832123
0.098407000303268 0.347214013338089 0.465736001729965
0.102222003042698 0.349343985319138 0.465573012828827
0.109052002429962 0.349664002656937 0.466188013553619
0.118634000420570 0.347279995679855 0.465467989444733
0.121462002396584 0.346680998802185 0.467476993799210
0.106500998139381 0.350859999656677 0.467404007911682
0.112180002033710 0.352230012416840 0.465303003787994
0.101115003228188 0.344742000102997 0.471365004777908
0.119231000542641 0.344684004783630 0.471300005912781
0.122537001967430 0.342413991689682 0.472755998373032
0.124871000647545 0.342763990163803 0.471406012773514
0.096707999706268 0.345714002847672 0.471244007349014
0.103538997471333 0.347301006317139 0.470609009265900
0.108998998999596 0.348482996225357 0.470889985561371
0.112710997462273 0.348958998918533 0.474005013704300
0.116025000810623 0.346857994794846 0.470636993646622
0.122861996293068 0.345436006784439 0.470376014709473
0.112672999501228 0.350544005632401 0.470555007457733
0.093175999820232 0.339442998170853 0.478630989789963
0.123772002756596 0.336979001760483 0.477225005626678
0.092664003372192 0.340842008590698 0.477780014276505
0.095801003277302 0.342404007911682 0.477735012769699
0.101149000227451 0.343389987945557 0.476087987422943
0.107430003583431 0.343409985303879 0.477216005325317
0.114775002002716 0.342734992504120 0.475726008415222
0.117342002689838 0.343838006258011 0.476924985647202
0.123240001499653 0.342157006263733 0.476395010948181
0.098426997661591 0.344938009977341 0.474952012300491
0.107491999864578 0.346291005611420 0.475277006626129
0.112401999533176 0.345160007476807 0.476451009511948
0.114977002143860 0.346105009317398 0.475378006696701
0.093321003019810 0.337256014347076 0.481366991996765
0.118849001824856 0.338604003190994 0.481628000736237
0.125489994883537 0.337731987237930 0.481644004583359
0.096809998154640 0.340119987726212 0.480984002351761
0.102739997208118 0.340950995683670 0.481011986732483
0.106898002326488 0.343288987874985 0.481471002101898
0.111500002443790 0.343573987483978 0.482497990131378
0.117531999945641 0.341881990432739 0.480807006359100
0.122584998607635 0.339814007282257 0.480774998664856
0.124838002026081 0.340653002262115 0.480533003807068
0.109549999237061 0.346257001161575 0.480156987905502
0.091614998877048 0.333214998245239 0.486212998628616
0.095696002244949 0.334627002477646 0.486629992723465
0.093455001711845 0.335420995950699 0.485368013381958
0.098461002111435 0.337738007307053 0.486037999391556
0.102173998951912 0.339289009571075 0.487365007400513
0.110923998057842 0.339275002479553 0.486604988574982
0.117818996310234 0.338173985481262 0.486003011465073
0.122194997966290 0.339745998382568 0.486032009124756
0.126258000731468 0.337226003408432 0.486182004213333
0.101576000452042 0.340463012456894 0.485078006982803
0.108083002269268 0.341403007507324 0.485720992088318
0.117734998464584 0.340346008539200 0.486721992492676
0.124992996454239 0.339926004409790 0.484649986028671
0.091664999723434 0.333050012588501 0.492056995630264
0.095411002635956 0.333164006471634 0.490866005420685
0.126397997140884 0.332403004169464 0.492114990949631
0.093662999570370 0.334928989410400 0.490101009607315
0.098180003464222 0.338227987289429 0.490400999784470
0.101914003491402 0.337105989456177 0.490709990262985
0.107366003096104 0.337408006191254 0.492471009492874
0.112962000072002 0.336236000061035 0.491290003061295
0.115910999476910 0.337577998638153 0.491809010505676
0.121646001935005 0.338203012943268 0.492128014564514
0.124843999743462 0.335552006959915 0.490590989589691
0.108289003372192 0.340330988168716 0.489728987216949
0.092046000063419 0.333294987678528 0.496713012456894
0.096104003489017 0.332675009965897 0.495570003986359
0.101438000798225 0.333034008741379 0.497752994298935
0.106761999428272 0.334735006093979 0.496080994606018
0.112327001988888 0.332783013582230 0.496448993682861
0.117839999496937 0.334201008081436 0.499285012483597
0.123198002576828 0.332574993371964 0.496331006288528
0.125616997480392 0.332349985837936 0.497667998075485
0.102333001792431 0.336023002862930 0.495113998651505
0.110271997749805 0.336066991090775 0.496731996536255
0.118013001978397 0.336116999387741 0.495595991611481
0.098569996654987 0.329744011163712 0.501142024993896
0.105195000767708 0.329286009073257 0.500723004341125
0.113381996750832 0.328574985265732 0.501926004886627
0.089638002216816 0.333676993846893 0.500699996948242
0.092731997370720 0.331068009138107 0.501008987426758
0.095921002328396 0.331539988517761 0.500266015529633
0.102622002363205 0.331391006708145 0.500410020351410
0.106989003717899 0.332704991102219 0.502102971076965
0.113039001822472 0.331577003002167 0.501815974712372
0.116010002791882 0.330300986766815 0.501227021217346
0.122746996581554 0.331032991409302 0.501254022121429
0.126055002212524 0.330224990844727 0.500335991382599
0.096919000148773 0.327944010496140 0.507824003696442
0.100798003375530 0.326193988323212 0.506920993328094
0.107781000435352 0.327091991901398 0.507076978683472
0.111092999577522 0.328115999698639 0.506738007068634
0.116452999413013 0.329463005065918 0.505415022373199
0.122611001133919 0.328224986791611 0.507735013961792
0.125376999378204 0.324914008378983 0.506864011287689
0.088074997067451 0.331950008869171 0.507637977600098
0.092546999454498 0.330448001623154 0.505752027034760
0.095646999776363 0.330552011728287 0.505011022090912
0.103382997214794 0.329910010099411 0.505191028118134
0.120957002043724 0.330237001180649 0.505294978618622
0.123291000723839 0.318183004856110 0.512760996818542
0.098277002573013 0.323294013738632 0.512533009052277
0.102351002395153 0.323386013507843 0.514572024345398
0.106922000646591 0.323206007480621 0.511425971984863
0.112406998872757 0.322741985321045 0.512808978557587
0.115221001207829 0.322912991046906 0.511871993541718
0.123740002512932 0.321673989295959 0.511879026889801
0.087030999362469 0.328779995441437 0.513423979282379
0.092473000288010 0.327398002147675 0.512948989868164
0.095812998712063 0.326431006193161 0.511152982711792
0.102425001561642 0.325848996639252 0.512145996093750
0.105129003524780 0.326820999383926 0.510047972202301
0.112672001123428 0.326151013374329 0.510484993457794
0.116961002349854 0.327149987220764 0.511961996555328
0.120130002498627 0.326173007488251 0.511500000953674
0.125145003199577 0.324793994426727 0.510798990726471
0.081951998174191 0.331122994422913 0.511981010437012
0.086479999125004 0.330235987901688 0.511142015457153
0.107860997319221 0.321204990148544 0.516598999500275
0.117686003446579 0.322221010923386 0.516817986965179
0.121351003646851 0.322513014078140 0.517139971256256
0.125074997544289 0.324364006519318 0.514762997627258
0.121959000825882 0.320742994546890 0.519814014434814
0.094056002795696 0.318581998348236 0.518010020256042
0.098849996924400 0.318641006946564 0.517434000968933
0.104269996285439 0.317411988973618 0.518072009086609
0.107028000056744 0.318051993846893 0.516408979892731
0.113031998276711 0.317658990621567 0.518123984336853
0.086235001683235 0.323177993297577 0.517750024795532
0.090576000511646 0.322338998317719 0.517678022384644
0.098270997405052 0.321161001920700 0.515384972095490
0.110922001302242 0.320098012685776 0.516663014888763
0.087578997015953 0.326626986265182 0.515724003314972
0.103435002267361 0.308609992265701 0.522566020488739
0.106818996369839 0.307034999132156 0.523075997829437
0.113725997507572 0.308228999376297 0.524599015712738
0.086868003010750 0.312133014202118 0.522294998168945
0.092542998492718 0.311684995889664 0.523329973220825
0.097089000046253 0.312667012214661 0.523914992809296
0.102342002093792 0.312231004238129 0.522689998149872
0.106352999806404 0.309884995222092 0.522095978260040
0.110605001449585 0.311352014541626 0.522580027580261
0.116999998688698 0.312640994787216 0.523521006107330
0.121361002326012 0.313080012798309 0.523824989795685
0.083953000605106 0.317292988300323 0.521723985671997
0.087018996477127 0.317804008722305 0.521318972110748
0.096536003053188 0.314904004335403 0.520941019058228
0.100888997316360 0.317148000001907 0.519851028919220
0.107810996472836 0.316036999225616 0.520123004913330
0.114445999264717 0.315674990415573 0.521692991256714
0.118900001049042 0.318468987941742 0.520820021629333
0.122230999171734 0.316356986761093 0.521650016307831
0.082505002617836 0.321105003356934 0.522109985351562
0.088044002652168 0.303972005844116 0.527239024639130
0.100584000349045 0.304358989000320 0.527876973152161
0.107238002121449 0.303128987550735 0.527810990810394
0.112701997160912 0.303398996591568 0.526898980140686
0.116883002221584 0.302206009626389 0.528847992420197
0.120700001716614 0.304154992103577 0.528868019580841
0.087545000016689 0.307520002126694 0.526552975177765
0.091332003474236 0.305642008781433 0.527276992797852
0.096966996788979 0.307951986789703 0.527993977069855
0.101603999733925 0.305712997913361 0.526884019374847
0.109416000545025 0.305391013622284 0.525554001331329
0.116389997303486 0.304870992898941 0.526937007904053
0.120310001075268 0.307473987340927 0.526390016078949
0.082368001341820 0.312238007783890 0.527619004249573
0.085395000874996 0.312341988086700 0.525225996971130
0.099806003272533 0.310478001832962 0.525593996047974
0.122639000415802 0.310315012931824 0.525056004524231
0.082156002521515 0.315840989351273 0.527432978153229
0.092271000146866 0.299169003963470 0.533280014991760
0.097741000354290 0.298377007246017 0.532392978668213
0.102903999388218 0.298633009195328 0.531046986579895
0.106912001967430 0.299596011638641 0.532480001449585
0.112237997353077 0.298449009656906 0.533527970314026
0.117076002061367 0.298588007688522 0.533057987689972
0.088188998401165 0.302087992429733 0.531171023845673
0.093096002936363 0.302260011434555 0.530753016471863
0.098344996571541 0.303265988826752 0.529847979545593
0.105733998119831 0.301243990659714 0.529653012752533
0.112496003508568 0.300861001014709 0.530390024185181
0.118938997387886 0.301059007644653 0.530821979045868
0.086170002818108 0.306919008493423 0.530335009098053
0.082336999475956 0.312068998813629 0.530263006687164
0.088583998382092 0.292612999677658 0.537142992019653
0.093740999698639 0.293078005313873 0.537957012653351
0.097612999379635 0.294261008501053 0.538847982883453
0.107781000435352 0.293949007987976 0.537446022033691
0.088119998574257 0.296923011541367 0.538263022899628
0.089936003088951 0.297145009040833 0.534955024719238
0.097222000360489 0.296808987855911 0.535575985908508
0.102219000458717 0.296514004468918 0.536803007125854
0.108497999608517 0.296837002038956 0.537360012531281
0.111298002302647 0.295579999685287 0.536958992481232
0.116155996918678 0.295697987079620 0.536972999572754
0.084216997027397 0.287517011165619 0.544175982475281
0.086290001869202 0.287791997194290 0.541438996791840
0.093216001987457 0.286168992519379 0.542219996452332
0.097237996757030 0.288397997617722 0.543690979480743
0.084049001336098 0.293927013874054 0.543127000331879
0.085813999176025 0.292961001396179 0.541526019573212
0.095821000635624 0.290042012929916 0.540840983390808
0.100737996399403 0.292001008987427 0.542096972465515
0.106691002845764 0.292903006076813 0.542086005210876
0.112148001790047 0.292248010635376 0.541440010070801
0.116481997072697 0.294322997331619 0.540871977806091
0.104520998895168 0.294972002506256 0.540327012538910
0.095128998160362 0.282209992408752 0.545306980609894
0.100948996841908 0.282480001449585 0.548476994037628
0.106274999678135 0.284312009811401 0.549459993839264
0.110729999840260 0.283338010311127 0.545840978622437
0.098916001617908 0.285593003034592 0.546149015426636
0.103224001824856 0.287120014429092 0.547134995460510
0.110748000442982 0.288204014301300 0.546069025993347
0.075979001820087 0.292187988758087 0.547317028045654
0.082402996718884 0.291669994592667 0.544893980026245
0.107614003121853 0.291337013244629 0.545189023017883
0.112180002033710 0.291442990303040 0.546446979045868
0.077168002724648 0.296858012676239 0.547635972499847
0.109189003705978 0.280310004949570 0.551186978816986
0.111240997910500 0.282696992158890 0.551433980464935
0.110000997781754 0.287196993827820 0.549899995326996
0.072921000421047 0.296337991952896 0.549637973308563
0.066881000995636 0.236523002386093 0.543462991714478
0.072082996368408 0.237597003579140 0.542454004287720
0.075790002942085 0.236242994666100 0.543416023254395
0.071478001773357 0.240913003683090 0.543143987655640
0.076741002500057 0.242513000965118 0.543267011642456
0.072084002196789 0.246916994452477 0.543233990669250
0.078019998967648 0.247581005096436 0.543125987052917
0.073431998491287 0.253006994724274 0.543017029762268
0.069989003241062 0.257800012826920 0.544169008731842
0.077238000929356 0.256646990776062 0.542979001998901
0.080789998173714 0.259618997573853 0.544421017169952
0.073207996785641 0.262219011783600 0.542750000953674
0.078293003141880 0.262481987476349 0.542787015438080
0.072237998247147 0.266853988170624 0.543411016464233
0.077838003635406 0.267805010080338 0.542477011680603
0.082019999623299 0.266562998294830 0.544191002845764
0.072213001549244 0.271894007921219 0.544589996337891
0.078947000205517 0.271483004093170 0.543242990970612
0.083180002868176 0.273723989725113 0.543699026107788
0.086967997252941 0.277435004711151 0.543259024620056
0.091730996966362 0.279136985540390 0.544580996036530
0.083769999444485 0.280851006507874 0.544422984123230
0.087071001529694 0.282285988330841 0.542084991931915
0.091185003519058 0.281996011734009 0.542692005634308
0.077958002686501 0.232218995690346 0.546914994716644
0.081065997481346 0.234479993581772 0.549405992031097
0.058699000626802 0.238056004047394 0.548919975757599
0.061321001499891 0.237544000148773 0.547459006309509
0.077276997268200 0.238652005791664 0.545283973217010
0.079824998974800 0.238714993000031 0.548337996006012
0.062925003468990 0.241225004196167 0.547527015209198
0.067822001874447 0.243784993886948 0.545035004615784
0.081077001988888 0.241779997944832 0.547725975513458
0.062143001705408 0.245939999818802 0.548321008682251
0.065076000988483 0.248013004660606 0.546954989433289
0.078524999320507 0.245636999607086 0.545334994792938
0.083123996853828 0.248388007283211 0.547668993473053
0.061889000236988 0.252211004495621 0.547980010509491
0.068697996437550 0.250750988721848 0.545027971267700
0.079916000366211 0.252671986818314 0.544638991355896
0.086879998445511 0.251610994338989 0.548107981681824
0.090960003435612 0.254397004842758 0.549504995346069
0.059046000242233 0.257533013820648 0.548555016517639
0.061918001621962 0.257721006870270 0.547105014324188
0.065884001553059 0.255026996135712 0.546123027801514
0.084049999713898 0.255695998668671 0.545764982700348
0.088348001241684 0.256731986999512 0.547233998775482
0.090180002152920 0.257918000221252 0.548273980617523
0.054352998733521 0.263186007738113 0.549040973186493
0.056676000356674 0.261804997920990 0.548201024532318
0.060175999999046 0.263305991888046 0.546971023082733
0.066923998296261 0.262098014354706 0.544894993305206
0.084971003234386 0.262618005275726 0.545383989810944
0.091549001634121 0.261420994997025 0.548083007335663
0.057098001241684 0.266820013523102 0.547810018062592
0.063799001276493 0.266184002161026 0.545311987400055
0.067772001028061 0.268913000822067 0.544803977012634
0.088751003146172 0.265542000532150 0.546446025371552
0.092611998319626 0.267480999231339 0.548189997673035
0.059007998555899 0.271867007017136 0.548083007335663
0.060789998620749 0.271953999996185 0.547424972057343
0.064815998077393 0.273032009601593 0.545690000057220
0.076164998114109 0.274558007717133 0.544893026351929
0.086318001151085 0.269796013832092 0.544820010662079
0.092109002172947 0.272377997636795 0.546941995620728
0.097051002085209 0.271486997604370 0.549483001232147
0.062693998217583 0.276758998632431 0.547833979129791
0.067763999104500 0.277682989835739 0.546572983264923
0.073150001466274 0.278569012880325 0.546343982219696
0.080176003277302 0.277743011713028 0.545378983020782
0.093810997903347 0.275723993778229 0.546917021274567
0.097254998981953 0.277384012937546 0.548210024833679
0.063446998596191 0.281668007373810 0.549116015434265
0.066606000065804 0.282209992408752 0.548413991928101
0.070248998701572 0.283037990331650 0.547173023223877
0.077349998056889 0.281646013259888 0.546926975250244
0.081490002572536 0.284666985273361 0.545969009399414
0.068671002984047 0.286415994167328 0.548228025436401
0.074363999068737 0.286238014698029 0.547887027263641
0.078299000859261 0.288657993078232 0.547073006629944
0.072246000170708 0.291572004556656 0.548219978809357
0.083778999745846 0.231810003519058 0.552995026111603
0.051996000111103 0.239023000001907 0.552936017513275
0.083889000117779 0.237569004297256 0.551050007343292
0.086180999875069 0.236702993512154 0.553966999053955
0.049580000340939 0.243047997355461 0.554099977016449
0.052331000566483 0.243257999420166 0.552698016166687
0.056683000177145 0.241853997111320 0.550400018692017
0.086237996816635 0.243053004145622 0.550948977470398
0.048234999179840 0.246922001242638 0.553973019123077
0.053095001727343 0.246393993496895 0.552720010280609
0.057787999510765 0.249225005507469 0.550291001796722
0.089501999318600 0.247736006975174 0.551315009593964
0.091389000415802 0.246380001306534 0.553417980670929
0.094824001193047 0.249565005302429 0.553557991981506
0.051235001534224 0.252465993165970 0.552573025226593
0.093226999044418 0.251266002655029 0.551711976528168
0.097051002085209 0.253627985715866 0.553143978118896
0.052225001156330 0.257140994071960 0.551120996475220
0.096975997090340 0.257070988416672 0.551602005958557
0.101759001612663 0.258031010627747 0.553869009017944
0.105742998421192 0.259434014558792 0.554432988166809
0.097230002284050 0.262295991182327 0.550917983055115
0.102959997951984 0.263110011816025 0.552999973297119
0.108065001666546 0.262816995382309 0.554201006889343
0.100107997655869 0.267583012580872 0.551527023315430
0.107559002935886 0.267356991767883 0.553158998489380
0.102527000010014 0.272451996803284 0.551105022430420
0.107957996428013 0.271268010139465 0.552694022655487
0.104919999837875 0.277231007814407 0.550774991512299
0.110624998807907 0.276479989290237 0.552235007286072
0.068989999592304 0.292986989021301 0.550544977188110
0.088133998215199 0.233072996139526 0.557142972946167
0.091464996337891 0.236375004053116 0.558170974254608
0.095587998628616 0.239383995532990 0.559328973293304
0.047093000262976 0.240059003233910 0.555065989494324
0.088958002626896 0.240425005555153 0.554692983627319
0.093194998800755 0.242061004042625 0.556515991687775
0.099357999861240 0.243266001343727 0.558380007743835
0.096490003168583 0.246505007147789 0.555956006050110
0.101589001715183 0.247117996215820 0.557410001754761
0.104148000478745 0.252445012331009 0.556043982505798
0.106624998152256 0.255674004554749 0.555651009082794
0.091716997325420 0.227366000413895 0.562592983245850
0.094043001532555 0.231571003794670 0.562554001808167
0.097313001751900 0.236059993505478 0.561284005641937
0.100645996630192 0.238591000437737 0.559768974781036
0.058568999171257 0.187976002693176 0.527132987976074
0.061799000948668 0.182807996869087 0.532930016517639
0.047915000468493 0.186199992895126 0.533204019069672
0.052836000919342 0.187683999538422 0.532176971435547
0.058800999075174 0.187760993838310 0.531138002872467
0.061551999300718 0.187500998377800 0.533662021160126
0.054671000689268 0.193116992712021 0.533791005611420
0.056391000747681 0.191418007016182 0.532230973243713
0.060304000973701 0.192419007420540 0.531840980052948
0.061027999967337 0.196672007441521 0.532564997673035
0.085205003619194 0.173162996768951 0.537931978702545
0.071161001920700 0.178540006279945 0.538116991519928
0.074872002005577 0.175889000296593 0.538546025753021
0.064769998192787 0.180080994963646 0.535112023353577
0.068526998162270 0.182926997542381 0.538157999515533
0.033581998199224 0.187891006469727 0.537117004394531
0.037960000336170 0.189299002289772 0.537850022315979
0.040858998894691 0.187195003032684 0.536136984825134
0.044957000762224 0.189668998122215 0.536436021327972
0.066218003630638 0.187001004815102 0.537564992904663
0.028851000592113 0.190025001764297 0.538378000259399
0.034166999161243 0.190298005938530 0.538350999355316
0.037896998226643 0.191683992743492 0.539276003837585
0.042196001857519 0.190818995237350 0.538250029087067
0.048193998634815 0.193694993853569 0.537635028362274
0.063824996352196 0.192432001233101 0.536348998546600
0.067144997417927 0.193753004074097 0.539313018321991
0.051984000951052 0.197683006525040 0.537738025188446
0.057030998170376 0.199077993631363 0.535622000694275
0.063730999827385 0.198018997907639 0.535618007183075
0.066386997699738 0.197747007012367 0.539062023162842
0.053647000342607 0.203791007399559 0.539395987987518
0.055100001394749 0.202353999018669 0.537508010864258
0.062861002981663 0.203351005911827 0.535988986492157
0.065806999802589 0.202933996915817 0.537921011447906
0.058850001543760 0.205216005444527 0.537308990955353
0.062189999967813 0.208776995539665 0.537352979183197
0.067106999456882 0.208623006939888 0.537195026874542
0.061250999569893 0.211364001035690 0.538244009017944
0.067238003015518 0.212211996316910 0.537992000579834
0.062826998531818 0.215981006622314 0.539525985717773
0.066972002387047 0.220210000872612 0.536598980426788
0.078744001686573 0.177903994917870 0.540686011314392
0.083295002579689 0.177590996026993 0.541679978370667
0.085506998002529 0.178797006607056 0.543690979480743
0.076401002705097 0.182207003235817 0.542219996452332
0.083033002912998 0.181094005703926 0.544275999069214
0.086553998291492 0.180399000644684 0.543404996395111
0.073026001453400 0.187674999237061 0.542703986167908
0.030953999608755 0.192701995372772 0.540108025074005
0.041859999299049 0.194352000951767 0.540651977062225
0.071792997419834 0.191824004054070 0.542541980743408
0.032076001167297 0.196817994117737 0.542598009109497
0.037659998983145 0.197972998023033 0.543271005153656
0.045940000563860 0.197272002696991 0.540776014328003
0.071137003600597 0.196973994374275 0.542837977409363
0.048792000859976 0.201712995767593 0.542119026184082
0.067928999662399 0.200791999697685 0.540410995483398
0.071236997842789 0.202782005071640 0.543132007122040
0.051888998597860 0.206422999501228 0.541655004024506
0.056164998561144 0.208014994859695 0.540682971477509
0.068548999726772 0.207807004451752 0.540857017040253
0.071309998631477 0.207967996597290 0.543470025062561
0.054398998618126 0.212716996669769 0.543262004852295
0.057686999440193 0.213236004114151 0.542110025882721
0.071512997150421 0.212450996041298 0.542976975440979
0.056306000798941 0.217050999403000 0.543061017990112
0.060297001153231 0.219660997390747 0.541685998439789
0.067359000444412 0.218879997730255 0.539843022823334
0.070809997618198 0.216363996267319 0.541176021099091
0.059091001749039 0.221846997737885 0.543087005615234
0.064067997038364 0.222859993577003 0.540802001953125
0.072167001664639 0.221680998802185 0.542456984519958
0.061845000833273 0.226785004138947 0.543241024017334
0.067103996872902 0.227796003222466 0.541247010231018
0.073151998221874 0.227377995848656 0.542470991611481
0.063452996313572 0.230387002229691 0.543680012226105
0.069131001830101 0.232998996973038 0.541810989379883
0.075015000998974 0.231755003333092 0.542384028434753
0.079503998160362 0.184722006320953 0.544914007186890
0.085534997284412 0.183405995368958 0.546477973461151
0.076722003519535 0.188620999455452 0.545103013515472
0.083538003265858 0.187388002872467 0.548192024230957
0.085970997810364 0.185450002551079 0.548327028751373
0.079012997448444 0.190687999129295 0.547366976737976
0.074385002255440 0.199695006012917 0.546140015125275
0.077393002808094 0.195461004972458 0.548089981079102
0.036028001457453 0.203179001808167 0.547483026981354
0.041319999843836 0.202377006411552 0.546347022056580
0.046859998255968 0.204254001379013 0.545140027999878
0.076774001121521 0.200034007430077 0.548695981502533
0.034462999552488 0.205328002572060 0.548641026020050
0.040008999407291 0.205645993351936 0.549363017082214
0.045658998191357 0.207286998629570 0.547402977943420
0.050356000661850 0.207873001694679 0.544701993465424
0.074593000113964 0.206387996673584 0.546765983104706
0.048167999833822 0.211122006177902 0.548017978668213
0.051015999168158 0.214167997241020 0.547156989574432
0.073264002799988 0.210779994726181 0.545085012912750
0.075088001787663 0.212009996175766 0.547731995582581
0.051410000771284 0.217636004090309 0.547357022762299
0.074141003191471 0.217675998806953 0.545278012752533
0.076986998319626 0.217135995626450 0.548524975776672
0.053052000701427 0.221191003918648 0.547553002834320
0.057061001658440 0.224015995860100 0.545437991619110
0.077083997428417 0.222485005855560 0.547565996646881
0.053915001451969 0.228689000010490 0.549288988113403
0.055482998490334 0.226933002471924 0.547517001628876
0.076320998370647 0.226166993379593 0.546190023422241
0.058191001415253 0.231082007288933 0.547623991966248
0.062605999410152 0.233926996588707 0.545368015766144
0.082257002592087 0.193011999130249 0.550993025302887
0.086102001368999 0.190125003457069 0.550049006938934
0.081669002771378 0.198703005909920 0.552908003330231
0.084982000291348 0.195813998579979 0.554003000259399
0.078394003212452 0.202583000063896 0.550770998001099
0.080848000943661 0.203150004148483 0.553566992282867
0.037448000162840 0.208403006196022 0.551580011844635
0.043853998184204 0.208699002861977 0.549854993820190
0.077551998198032 0.207987993955612 0.550750017166138
0.038063000887632 0.210626006126404 0.553605973720551
0.041145000606775 0.212165996432304 0.553236007690430
0.045928001403809 0.214570000767708 0.551573991775513
0.078336000442505 0.213572993874550 0.552079021930695
0.044296998530626 0.216239005327225 0.553773999214172
0.047867000102997 0.218535006046295 0.551904022693634
0.078442998230457 0.216767996549606 0.552000999450684
0.047079000622034 0.222011998295784 0.553440988063812
0.078383997082710 0.220459997653961 0.550359010696411
0.080187000334263 0.222127005457878 0.552738010883331
0.048716001212597 0.227337002754211 0.552931010723114
0.050696998834610 0.225033000111580 0.550952017307281
0.079783000051975 0.227335005998611 0.550004005432129
0.050964999943972 0.232253998517990 0.552857995033264
0.055082000792027 0.235146000981331 0.550423979759216
0.088114000856876 0.198290005326271 0.557529985904694
0.087316997349262 0.202503994107246 0.558009028434753
0.089965999126434 0.200949996709824 0.558441996574402
0.082479998469353 0.207062005996704 0.556641995906830
0.082336001098156 0.212659999728203 0.556905984878540
0.041510000824928 0.217292994260788 0.555648982524872
0.082468003034592 0.216385006904602 0.557053029537201
0.083235003054142 0.221705004572868 0.556316018104553
0.086055003106594 0.223547995090485 0.557918012142181
0.044132001698017 0.225195005536079 0.556026995182037
0.047331999987364 0.228999003767967 0.554639995098114
0.086111001670361 0.226570993661880 0.558036983013153
0.046211000531912 0.232824996113777 0.555543005466461
0.048305999487638 0.236126005649567 0.554838001728058
0.086115002632141 0.208961993455887 0.560710012912750
0.084716998040676 0.212449997663498 0.560141980648041
0.086777999997139 0.212116003036499 0.563340008258820
0.086566999554634 0.217536002397537 0.562354981899261
0.088815003633499 0.222553998231888 0.562712013721466
0.068977996706963 0.139929994940758 0.500587999820709
0.071392998099327 0.143850997090340 0.502732992172241
0.063951000571251 0.138734996318817 0.506303012371063
0.067617997527122 0.141747996211052 0.506089985370636
0.027504000812769 0.148124992847443 0.506878018379211
0.029913000762463 0.146837994456291 0.507708013057709
0.072737000882626 0.147010996937752 0.506121993064880
0.022608000785112 0.152646005153656 0.505627989768982
0.025499999523163 0.151923999190331 0.508822977542877
0.021112000569701 0.157386004924774 0.508515000343323
0.052705999463797 0.138126000761986 0.513850986957550
0.057314001023769 0.138539001345634 0.512187004089355
0.042334999889135 0.142486006021500 0.512849986553192
0.048161000013351 0.142789006233215 0.513112008571625
0.061484001576900 0.141772001981735 0.512089014053345
0.066229999065399 0.143841996788979 0.510825991630554
0.032320998609066 0.147186994552612 0.510605990886688
0.036890998482704 0.145131006836891 0.513234019279480
0.067153997719288 0.146840006113052 0.514374971389771
0.070395000278950 0.146630004048347 0.510757982730865
0.028078999370337 0.153490006923676 0.512596011161804
0.031941998749971 0.151582002639771 0.513487994670868
0.073866002261639 0.149903997778893 0.510746002197266
0.076548002660275 0.152762994170189 0.511555016040802
0.023962000384927 0.156325995922089 0.511663973331451
0.020363999530673 0.162222996354103 0.512030005455017
0.057181000709534 0.143409997224808 0.515974998474121
0.037870999425650 0.148466005921364 0.514657020568848
0.045056998729706 0.147178992629051 0.515295982360840
0.052684001624584 0.146520003676414 0.517425000667572
0.057573001831770 0.148165002465248 0.519159972667694
0.063032001256943 0.148488000035286 0.517543017864227
0.036632001399994 0.152383998036385 0.516635000705719
0.042295999825001 0.151563003659248 0.517740011215210
0.047253001481295 0.152070999145508 0.517602980136871
0.067934997379780 0.149803996086121 0.517098009586334
0.072786003351212 0.151755005121231 0.516249001026154
0.076943002641201 0.154269993305206 0.515232026576996
0.026886999607086 0.158577993512154 0.516057014465332
0.032271999865770 0.156516999006271 0.517557978630066
0.037620000541210 0.155061006546021 0.518601000308990
0.078050002455711 0.156099006533623 0.517363011837006
0.022796999663115 0.162973001599312 0.517046988010406
0.027551999315619 0.161162003874779 0.518301010131836
0.020805999636650 0.165794998407364 0.517368018627167
0.053167000412941 0.153019994497299 0.519904017448425
0.061822000890970 0.153373003005981 0.522056996822357
0.066614001989365 0.151822999119759 0.519629001617432
0.071180000901222 0.154265999794006 0.520452022552490
0.036272998899221 0.159370005130768 0.520483970642090
0.043232999742031 0.158426001667976 0.520739972591400
0.050358001142740 0.157190993428230 0.520087003707886
0.057055000215769 0.155928999185562 0.523059010505676
0.063543997704983 0.156277000904083 0.523926973342896
0.068435996770859 0.155469000339508 0.522678971290588
0.073109999299049 0.157390996813774 0.523531019687653
0.077506996691227 0.157465994358063 0.520774006843567
0.026285000145435 0.164416000247002 0.520437002182007
0.032930999994278 0.162928000092506 0.521767973899841
0.036674000322819 0.163475006818771 0.522725999355316
0.040337998420000 0.162790000438690 0.522933006286621
0.046239998191595 0.162181004881859 0.522249996662140
0.052521999925375 0.161677002906799 0.522112011909485
0.055874001234770 0.160594001412392 0.523977994918823
0.081468001008034 0.160839006304741 0.522740006446838
0.023592999204993 0.168803006410599 0.522572994232178
0.027754999697208 0.166486993432045 0.523449003696442
0.031447000801563 0.166060999035835 0.523491978645325
0.044270999729633 0.165439993143082 0.523891985416412
0.048321001231670 0.168203994631767 0.524473011493683
0.052664000540972 0.165637999773026 0.523123979568481
0.022176999598742 0.171621993184090 0.523409008979797
0.061287999153137 0.159054994583130 0.525425016880035
0.068428002297878 0.158077001571655 0.524968028068542
0.058370999991894 0.162935003638268 0.526121020317078
0.065218999981880 0.162692993879318 0.527571022510529
0.072268001735210 0.161229997873306 0.527495026588440
0.077979996800423 0.161476001143456 0.525955021381378
0.081473998725414 0.163729995489120 0.526885986328125
0.037491001188755 0.166480004787445 0.524751007556915
0.041432000696659 0.169313997030258 0.526386976242065
0.056547001004219 0.168277993798256 0.526180028915405
0.061473999172449 0.165809005498886 0.528478026390076
0.083307996392250 0.165353998541832 0.528545022010803
0.023933000862598 0.174537003040314 0.526633024215698
0.027450000867248 0.172423005104065 0.527370989322662
0.032600998878479 0.170985996723175 0.526961982250214
0.037303000688553 0.172492995858192 0.528378009796143
0.041397001594305 0.172177001833916 0.528253018856049
0.045504000037909 0.173385992646217 0.527382016181946
0.052395001053810 0.171116992831230 0.525214016437531
0.057410001754761 0.174189001321793 0.527815997600555
0.059882000088692 0.170132994651794 0.529286026954651
0.025487000122666 0.176072001457214 0.529137015342712
0.048985999077559 0.175910994410515 0.527490973472595
0.053286001086235 0.178446993231773 0.527900993824005
0.056614998728037 0.179000005125999 0.527800977230072
0.052522998303175 0.180794000625610 0.527666985988617
0.057780001312494 0.181003004312515 0.529365003108978
0.076160997152328 0.164311006665230 0.529650986194611
0.067869000136852 0.166800007224083 0.530652999877930
0.072282999753952 0.168354004621506 0.532703995704651
0.081596001982689 0.167630001902580 0.531879007816315
0.031447999179363 0.174691006541252 0.529640018939972
0.063887000083923 0.173410996794701 0.532616019248962
0.066565997898579 0.171454995870590 0.533179998397827
0.070430003106594 0.171996995806694 0.534602999687195
0.024134000763297 0.179287001490593 0.531068027019501
0.028411999344826 0.178146004676819 0.531421005725861
0.032437998801470 0.179106995463371 0.532468974590302
0.035599999129772 0.177128002047539 0.531333029270172
0.041228000074625 0.177781999111176 0.531013011932373
0.046548001468182 0.179383993148804 0.529923021793365
0.061606999486685 0.176829993724823 0.532234013080597
0.026936000213027 0.181358993053436 0.533352017402649
0.032825998961926 0.181766003370285 0.534138023853302
0.037537001073360 0.180819004774094 0.533524990081787
0.043754998594522 0.183417007327080 0.533192992210388
0.050675000995398 0.182238996028900 0.529972016811371
0.074385002255440 0.173778995871544 0.536985993385315
0.077535003423691 0.172655001282692 0.536399006843567
0.082138001918793 0.172431007027626 0.537084996700287
0.067520000040531 0.175933003425598 0.535219013690948
0.036740999668837 0.184328004717827 0.535498023033142
0.028805999085307 0.186722993850708 0.536585986614227
0.067501001060009 0.091954000294209 0.488081008195877
0.037200998514891 0.098531000316143 0.487834990024567
0.068323001265526 0.096933998167515 0.488131999969482
0.005233999807388 0.103872001171112 0.488117992877960
0.068678997457027 0.102534003555775 0.488189995288849
0.068889997899532 0.107364997267723 0.487863987684250
0.068494997918606 0.111276000738144 0.488898992538452
0.017736999318004 0.136960998177528 0.489399999380112
0.030371999368072 0.099555000662804 0.490258991718292
0.044181998819113 0.097069002687931 0.490112990140915
0.047890998423100 0.098563000559807 0.492531001567841
0.051158998161554 0.096165001392365 0.491537988185883
0.056997001171112 0.096390999853611 0.491930991411209
0.062104001641273 0.097975999116898 0.491546005010605
0.008964999578893 0.102907001972198 0.490958005189896
0.016327999532223 0.101741001009941 0.491613000631332
0.022152999415994 0.102228000760078 0.491717994213104
0.027525000274181 0.103601001203060 0.492814004421234
0.033036999404430 0.103032000362873 0.491975992918015
0.041352000087500 0.101095996797085 0.490474998950958
0.048344999551773 0.100666001439095 0.493820995092392
0.056983001530170 0.101250000298023 0.493517011404037
0.062683999538422 0.102655000984669 0.492401987314224
0.066264003515244 0.100867003202438 0.490161985158920
0.007639999967068 0.106948003172874 0.490498989820480
0.013950999826193 0.106717996299267 0.492709010839462
0.017307000234723 0.107284002006054 0.493173003196716
0.022910999134183 0.106169000267982 0.493449002504349
0.032806999981403 0.105576001107693 0.493921011686325
0.038056001067162 0.105818003416061 0.492720007896423
0.041529998183250 0.105488002300262 0.492597997188568
0.063295997679234 0.106997996568680 0.493465006351471
0.067277997732162 0.107986003160477 0.490534007549286
0.007540999911726 0.112143002450466 0.490763008594513
0.012032999657094 0.111106999218464 0.492556005716324
0.014945999719203 0.112893998622894 0.493414998054504
0.063638001680374 0.112019002437592 0.494230002164841
0.066703997552395 0.113266997039318 0.491257995367050
0.012829000130296 0.116590999066830 0.492379009723663
0.017364000901580 0.117742002010345 0.493975996971130
0.064653001725674 0.119057998061180 0.494451999664307
0.066228002309799 0.116709999740124 0.492338985204697
0.012167000211775 0.121301002800465 0.491645991802216
0.067151002585888 0.121914997696877 0.492188006639481
0.012419000267982 0.127259999513626 0.490381002426147
0.017315000295639 0.126591995358467 0.492767006158829
0.021074000746012 0.129562005400658 0.494450986385345
0.067749999463558 0.128242999315262 0.492756009101868
0.014742000028491 0.130195006728172 0.490397989749908
0.018247999250889 0.132058992981911 0.491753995418549
0.020512999966741 0.133154004812241 0.493413001298904
0.067937999963760 0.130175992846489 0.492853999137878
0.021242000162601 0.136675998568535 0.493052989244461
0.020868999883533 0.141165003180504 0.492338985204697
0.020494999364018 0.145420998334885 0.492341011762619
0.045306999236345 0.104217998683453 0.494672000408173
0.052436001598835 0.103256002068520 0.495041996240616
0.035585001111031 0.109549000859261 0.495853990316391
0.042383998632431 0.108281999826431 0.494796991348267
0.049538999795914 0.107941001653671 0.497747004032135
0.054319001734257 0.108989000320435 0.497438013553619
0.056363001465797 0.106147997081280 0.495660990476608
0.060557000339031 0.109056003391743 0.495406985282898
0.021502999588847 0.111605003476143 0.494673997163773
0.027119999751449 0.112470999360085 0.496349990367889
0.032327998429537 0.113234996795654 0.498122990131378
0.039229001849890 0.113349996507168 0.497422009706497
0.042468000203371 0.113986998796463 0.497299998998642
0.045914001762867 0.111126996576786 0.498493999242783
0.053302999585867 0.111199997365475 0.498865008354187
0.057525999844074 0.113095998764038 0.498026996850967
0.022695999592543 0.118638001382351 0.496154010295868
0.029400000348687 0.116483002901077 0.498351991176605
0.043956998735666 0.115642003715038 0.499413996934891
0.059473000466824 0.116827003657818 0.498434007167816
0.061349999159575 0.117629997432232 0.496856987476349
0.019680999219418 0.122626997530460 0.494783014059067
0.026088999584317 0.121551997959614 0.497996002435684
0.062139000743628 0.123217001557350 0.497521996498108
0.023482000455260 0.125618994235992 0.496665000915527
0.026771999895573 0.127702996134758 0.498389005661011
0.065586000680923 0.127730995416641 0.495696008205414
0.024608999490738 0.132597997784615 0.496304988861084
0.027186999097466 0.132397994399071 0.498306989669800
0.063125997781754 0.130204007029533 0.499513000249863
0.066444002091885 0.133376002311707 0.497377991676331
0.025599999353290 0.137572005391121 0.497173011302948
0.068818002939224 0.136987000703812 0.497051000595093
0.023560000583529 0.143788993358612 0.497332006692886
0.021234000101686 0.147964999079704 0.497256994247437
0.020379999652505 0.151455000042915 0.497707009315491
0.050464998930693 0.114169999957085 0.501213014125824
0.036688998341560 0.116360001266003 0.499942988157272
0.040722001343966 0.119377002120018 0.500853002071381
0.047483000904322 0.118231996893883 0.503024995326996
0.053886998444796 0.118378996849060 0.501836001873016
0.032131999731064 0.122308999300003 0.501022994518280
0.037588998675346 0.122716002166271 0.503112018108368
0.044004999101162 0.121895000338554 0.502102017402649
0.045814000070095 0.122885003685951 0.503911018371582
0.056802000850439 0.122826002538204 0.502107977867126
0.032958999276161 0.126733005046844 0.502403974533081
0.035294000059366 0.127750992774963 0.504157006740570
0.044392000883818 0.126653999090195 0.502883970737457
0.057608999311924 0.128120005130768 0.504033029079437
0.060006998479366 0.126781001687050 0.500993013381958
0.032147999852896 0.131537005305290 0.502667009830475
0.062341000884771 0.133058995008469 0.501884996891022
0.029009999707341 0.135562002658844 0.500285983085632
0.031528998166323 0.136337995529175 0.503032028675079
0.065903000533581 0.136260002851486 0.500690996646881
0.027661999687552 0.140670001506805 0.500954985618591
0.022421000525355 0.149452000856400 0.500907003879547
0.025480000302196 0.145390003919601 0.501680016517639
0.020315000787377 0.151885002851486 0.500487983226776
0.051695000380278 0.121458001434803 0.504709005355835
0.041831001639366 0.126540005207062 0.504745006561279
0.047763999551535 0.127909004688263 0.507287025451660
0.053148001432419 0.127990007400513 0.507927000522614
0.037964001297951 0.132731005549431 0.507371008396149
0.043159000575542 0.132847994565964 0.508087992668152
0.056299999356270 0.131442993879318 0.507422983646393
0.060417998582125 0.134453997015953 0.505329012870789
0.033045001327991 0.138548001646996 0.505554974079132
0.059463001787663 0.136357992887497 0.507775008678436
0.031057000160217 0.143451005220413 0.506451010704041
0.035482998937368 0.141391992568970 0.507849991321564
0.049777001142502 0.132126003503799 0.510191023349762
0.054173998534679 0.134575992822647 0.511458992958069
0.039841998368502 0.137219995260239 0.509886026382446
0.048191998153925 0.137370005249977 0.511093020439148
0.036956999450922 0.141435995697975 0.510127007961273
0.032604999840260 0.062033999711275 0.452051013708115
0.054846998304129 0.051360998302698 0.458891004323959
0.028411999344826 0.058582000434399 0.457574009895325
0.041395999491215 0.058272000402212 0.455900013446808
0.046117998659611 0.056028999388218 0.457861989736557
0.032317999750376 0.062862999737263 0.456144005060196
0.035925000905991 0.060681000351906 0.456073999404907
0.042688999325037 0.062463998794556 0.457650005817413
0.033498998731375 0.066932998597622 0.457350999116898
0.063210003077984 0.049132999032736 0.460631012916565
0.021066000685096 0.052166998386383 0.461751997470856
0.025209000334144 0.054517000913620 0.459760993719101
0.051945999264717 0.053635999560356 0.460184007883072
0.056526001542807 0.052850998938084 0.461542010307312
0.024824000895023 0.056896999478340 0.460916996002197
0.042034998536110 0.058797001838684 0.459848999977112
0.049056001007557 0.057930000126362 0.462307989597321
0.051729999482632 0.057300001382828 0.462958991527557
0.027876999229193 0.062038999050856 0.462776005268097
0.031514998525381 0.063960999250412 0.460195988416672
0.039050001651049 0.062426000833511 0.460559010505676
0.040309000760317 0.063491001725197 0.463503003120422
0.046553999185562 0.061737000942230 0.461935997009277
0.026195999234915 0.064896002411842 0.461257994174957
0.031656000763178 0.067708998918533 0.461055010557175
0.036339998245239 0.067198999226093 0.462000012397766
0.037326000630856 0.070968002080917 0.461021989583969
0.039992999285460 0.074959002435207 0.462949991226196
0.012927000410855 0.046521998941898 0.466868013143539
0.017235999926925 0.048891000449657 0.464744001626968
0.016628999263048 0.050466999411583 0.465804994106293
0.020114000886679 0.053748998790979 0.465925008058548
0.059429001063108 0.053328000009060 0.467233985662460
0.063105002045631 0.050875999033451 0.466331988573074
