ply
format ascii 1.0
element vertex 886
property double x
property double y
property double z
end_header
0.066551998257637 0.113705001771450 0.800478994846344
0.071741998195648 0.111625000834465 0.799803018569946
0.077303998172283 0.111828997731209 0.801707029342651
0.082687996327877 0.112340003252029 0.800682008266449
0.088095001876354 0.113968998193741 0.800436019897461
0.063438996672630 0.117181003093719 0.800750017166138
0.068884000182152 0.115613996982574 0.804461002349854
0.092329002916813 0.116709001362324 0.801181018352509
0.095573998987675 0.117899999022484 0.801837027072906
0.044714998453856 0.122458003461361 0.799887001514435
0.047324001789093 0.124177999794483 0.802264988422394
0.051904998719692 0.121766999363899 0.802353978157043
0.057943001389503 0.121642999351025 0.802435994148254
0.062336001545191 0.122478999197483 0.801127970218658
0.027498999610543 0.128426000475883 0.799879014492035
0.041875999420881 0.126081004738808 0.800684988498688
0.044916000217199 0.127232998609543 0.802482008934021
0.062738999724388 0.126662999391556 0.801851987838745
0.024806000292301 0.132403999567032 0.800251007080078
0.031943999230862 0.131454005837440 0.801154971122742
0.037879999727011 0.131666004657745 0.802542984485626
0.022149000316858 0.135189995169640 0.801159977912903
0.027210000902414 0.136913999915123 0.801873981952667
0.031380001455545 0.136033996939659 0.803066015243530
0.036113001406193 0.135095998644829 0.803879022598267
0.024304000660777 0.144506007432938 0.802136003971100
0.025861000642180 0.141971006989479 0.804109990596771
0.024747999384999 0.145256996154785 0.801711976528168
0.181732997298241 0.369150012731552 0.801056027412415
0.186564996838570 0.367334991693497 0.802187025547028
0.194161996245384 0.369612008333206 0.802923977375031
0.177787005901337 0.373414009809494 0.803198993206024
0.184646993875504 0.371506005525589 0.802699029445648
0.188934996724129 0.373878985643387 0.799637019634247
0.191553995013237 0.371609985828400 0.800908029079437
0.197805002331734 0.372970014810562 0.802079021930695
0.167535006999969 0.378343999385834 0.803022027015686
0.172771006822586 0.376024991273880 0.803196012973785
0.174943000078201 0.377566009759903 0.800900995731354
0.181538000702858 0.375602006912231 0.799773991107941
0.201682001352310 0.375331997871399 0.800804018974304
0.205624997615814 0.376913011074066 0.800765991210938
0.212163001298904 0.378082990646362 0.801518976688385
0.158913001418114 0.384458005428314 0.801455974578857
0.162073001265526 0.382247000932693 0.802415013313293
0.171651005744934 0.381154000759125 0.799925982952118
0.156849995255470 0.387288004159927 0.800858020782471
0.161038994789124 0.385376989841461 0.799955010414124
0.077380999922752 0.114308997988701 0.805903017520905
0.082116998732090 0.113802999258041 0.805352985858917
0.088526003062725 0.114642001688480 0.807008028030396
0.065727002918720 0.119043000042439 0.805499017238617
0.072135001420975 0.117106996476650 0.806774020195007
0.076379999518394 0.116402998566628 0.809324979782104
0.091982997953892 0.116113997995853 0.805593013763428
0.096367001533508 0.117518998682499 0.805800974369049
0.055691000074148 0.124420002102852 0.805312991142273
0.063432000577450 0.123889997601509 0.806755006313324
0.067520998418331 0.120700001716614 0.808045983314514
0.094145998358727 0.121228002011776 0.805849015712738
0.047572001814842 0.127664998173714 0.804916024208069
0.052737999707460 0.127880007028580 0.808053016662598
0.057844001799822 0.126440003514290 0.807340025901794
0.062833003699780 0.127462998032570 0.807099997997284
0.042762998491526 0.133077993988991 0.805900990962982
0.047014001756907 0.132363006472588 0.807766020298004
0.033100001513958 0.138483002781868 0.804780006408691
0.038959998637438 0.136691004037857 0.806434988975525
0.042543999850750 0.136846005916595 0.808622002601624
0.029673999175429 0.142629995942116 0.805800020694733
0.032997999340296 0.143292993307114 0.807543992996216
0.036552999168634 0.140954002737999 0.808350980281830
0.028059000149369 0.146632000803947 0.807153999805450
0.181736007332802 0.362435013055801 0.806873977184296
0.171794995665550 0.368196994066238 0.808057010173798
0.178457006812096 0.367619991302490 0.807788014411926
0.182284995913506 0.367486000061035 0.806011021137238
0.187747001647949 0.367392003536224 0.807313978672028
0.192619994282722 0.368898987770081 0.806626975536346
0.167597994208336 0.372572004795074 0.807025015354156
0.171416997909546 0.372058004140854 0.806689977645874
0.197678998112679 0.371571004390717 0.806055009365082
0.202126994729042 0.373878985643387 0.805441975593567
0.209784001111984 0.374314993619919 0.809602022171021
0.157168999314308 0.379399001598358 0.806668996810913
0.164394006133080 0.376428008079529 0.806432008743286
0.206560999155045 0.375687003135681 0.805782020092010
0.211002007126808 0.376534998416901 0.806788980960846
0.154138997197151 0.384039014577866 0.807943999767303
0.156777992844582 0.381516993045807 0.806066989898682
0.160790994763374 0.379891991615295 0.805460989475250
0.154649004340172 0.384995013475418 0.808708012104034
0.155192002654076 0.385890990495682 0.805103003978729
0.073330998420715 0.118557997047901 0.810063004493713
0.077615000307560 0.117996998131275 0.811131000518799
0.082503996789455 0.116610996425152 0.811142981052399
0.086398996412754 0.116467997431755 0.812579989433289
0.092450000345707 0.116834998130798 0.811662018299103
0.096198000013828 0.118069998919964 0.810114026069641
0.069668002426624 0.121821999549866 0.810316979885101
0.071322001516819 0.124035000801086 0.812884986400604
0.089004002511501 0.121959999203682 0.812395989894867
0.094526000320911 0.120088003575802 0.812502980232239
0.067671000957489 0.126056000590324 0.812086999416351
0.051224999129772 0.132971003651619 0.811379015445709
0.056699000298977 0.131708994507790 0.812425971031189
0.063320003449917 0.131986007094383 0.810931980609894
0.065826997160912 0.131423994898796 0.812692999839783
0.043432999402285 0.139434993267059 0.811303019523621
0.047393999993801 0.136994004249573 0.812053024768829
0.039645001292229 0.143332004547119 0.811815977096558
0.044939998537302 0.141247004270554 0.814001023769379
0.033137999475002 0.148081004619598 0.811089992523193
0.036279000341892 0.147135004401207 0.812617003917694
0.029642999172211 0.152346000075340 0.811459004878998
0.033029001206160 0.155843004584312 0.812816977500916
0.180513992905617 0.359452009201050 0.812349975109100
0.173333004117012 0.364751011133194 0.812196016311646
0.178491994738579 0.361330002546310 0.812197029590607
0.183329001069069 0.364582985639572 0.809965014457703
0.185598000884056 0.362794011831284 0.812449991703033
0.166778996586800 0.367789000272751 0.813633024692535
0.169970005750656 0.367852002382278 0.810831010341644
0.176534995436668 0.366178989410400 0.809975981712341
0.189714998006821 0.365370988845825 0.811590015888214
0.193905994296074 0.368324011564255 0.810640990734100
0.161550998687744 0.374397009611130 0.810802996158600
0.166397005319595 0.371282994747162 0.810266971588135
0.198122993111610 0.370815008878708 0.810443997383118
0.202101007103920 0.373403996229172 0.810400009155273
0.158735007047653 0.377436012029648 0.810133993625641
0.161081999540329 0.375079005956650 0.813656985759735
0.206824004650116 0.374893993139267 0.810382008552551
0.212200000882149 0.375364005565643 0.809804022312164
0.155943006277084 0.381590992212296 0.810046970844269
0.081536002457142 0.118978001177311 0.816442012786865
0.090556003153324 0.118298001587391 0.815738022327423
0.096096999943256 0.118721000850201 0.816156029701233
0.078174002468586 0.121921002864838 0.815941989421844
0.083761997520924 0.121399998664856 0.819422006607056
0.088583000004292 0.121351003646851 0.815172970294952
0.095261998474598 0.120594002306461 0.814692020416260
0.072734996676445 0.126833006739616 0.816949009895325
0.076733000576496 0.126463994383812 0.816956996917725
0.060543999075890 0.134377002716064 0.815047025680542
0.068830996751785 0.133169993758202 0.817080020904541
0.072727002203465 0.130474001169205 0.817596018314362
0.052235998213291 0.137186005711555 0.815257012844086
0.056795999407768 0.138420000672340 0.817858994007111
0.064312003552914 0.136297002434731 0.816118001937866
0.069498002529144 0.137929007411003 0.816565990447998
0.070358000695705 0.135345995426178 0.816835999488831
0.047138001769781 0.142073005437851 0.816676974296570
0.051538001745939 0.140980005264282 0.819054007530212
0.038261998444796 0.148441001772881 0.815419971942902
0.041880000382662 0.147264003753662 0.817188024520874
0.034618999809027 0.152114003896713 0.815459012985229
0.036853998899460 0.153809994459152 0.818189024925232
0.033475998789072 0.156633004546165 0.817035019397736
0.031895998865366 0.159922003746033 0.816983997821808
0.175000995397568 0.354149997234344 0.817584991455078
0.167532995343208 0.359504014253616 0.818939983844757
0.171762004494667 0.357841014862061 0.817005991935730
0.176413998007774 0.357787013053894 0.816715002059937
0.181861996650696 0.359508991241455 0.815985977649689
0.164063006639481 0.363303005695343 0.819038987159729
0.169106006622314 0.360724985599518 0.816742002964020
0.172129005193710 0.362704992294312 0.814779996871948
0.185837000608444 0.361629009246826 0.815600991249084
0.190125003457069 0.364578992128372 0.815644979476929
0.150551006197929 0.368815988302231 0.817457973957062
0.162209004163742 0.368158012628555 0.817534983158112
0.165947005152702 0.365058988332748 0.816111028194427
0.194211006164551 0.367686986923218 0.815811991691589
0.151745006442070 0.372411012649536 0.817048013210297
0.158347994089127 0.371504008769989 0.818985998630524
0.160374000668526 0.372819989919662 0.815636992454529
0.198534995317459 0.370287001132965 0.815652012825012
0.202419996261597 0.372768014669418 0.815430998802185
0.206983998417854 0.373484998941422 0.815132975578308
0.151677995920181 0.378372997045517 0.818606019020081
0.156389996409416 0.376289993524551 0.817254006862640
0.154096007347107 0.379900991916656 0.815626978874207
0.090641997754574 0.119584999978542 0.820245981216431
0.097005002200603 0.119200997054577 0.820574998855591
0.081082001328468 0.123882003128529 0.820342004299164
0.087870001792908 0.122744999825954 0.822806000709534
0.090813003480434 0.121333003044128 0.823499023914337
0.097263000905514 0.120043002068996 0.821654021739960
0.077876999974251 0.127598002552986 0.820420980453491
0.081724002957344 0.126984000205994 0.822476983070374
0.095610000193119 0.125779002904892 0.820259988307953
0.074464999139309 0.131144002079964 0.820995986461639
0.076548002660275 0.133474007248878 0.822637975215912
0.065355002880096 0.138481006026268 0.820102989673615
0.072186000645161 0.137498006224632 0.821843028068542
0.048555001616478 0.143924996256828 0.819936990737915
0.051672998815775 0.144657999277115 0.822012007236481
0.056908998638391 0.142491996288300 0.821496009826660
0.062251001596451 0.142082005739212 0.822061002254486
0.065964996814728 0.142831996083260 0.821913003921509
0.071000002324581 0.141251996159554 0.822584986686707
0.045715998858213 0.147752001881599 0.822138011455536
0.052064001560211 0.146999999880791 0.824091970920563
0.057261001318693 0.145315006375313 0.823850989341736
0.067226998507977 0.146430999040604 0.823085010051727
0.074192002415657 0.147754997014999 0.822844982147217
0.038336999714375 0.154392004013062 0.821020007133484
0.042458001524210 0.151392996311188 0.822479009628296
0.046156998723745 0.149812996387482 0.822772026062012
0.035482998937368 0.158671006560326 0.820729017257690
0.033339999616146 0.161256998777390 0.820774018764496
0.038557000458241 0.161016002297401 0.822411000728607
0.166098996996880 0.352793008089066 0.822522997856140
0.172181993722916 0.352203011512756 0.821642994880676
0.177266001701355 0.352333009243011 0.824050009250641
0.180250003933907 0.352459996938705 0.822444021701813
0.157405003905296 0.358348011970520 0.824604988098145
0.163385003805161 0.356296986341476 0.822407007217407
0.171083003282547 0.355706989765167 0.819773972034454
0.178354993462563 0.355277001857758 0.820291996002197
0.183124005794525 0.356959998607635 0.822513997554779
0.187391996383667 0.359400004148483 0.824248015880585
0.154575005173683 0.362185001373291 0.823890984058380
0.157998993992805 0.362412005662918 0.823197007179260
0.161698997020721 0.361557990312576 0.821331024169922
0.186654001474380 0.360491007566452 0.820760011672974
0.190854996442795 0.362046003341675 0.821458995342255
0.143683001399040 0.366470992565155 0.822552978992462
0.148540005087852 0.366939991712570 0.822431027889252
0.151455998420715 0.366732001304626 0.822840988636017
0.156338006258011 0.366652995347977 0.821563005447388
0.196896001696587 0.368070006370544 0.820537984371185
0.141766995191574 0.370088011026382 0.823041975498199
0.147508993744850 0.372220993041992 0.821026027202606
0.152254998683929 0.373620003461838 0.819826006889343
0.092537000775337 0.122902996838093 0.826085984706879
0.096461996436119 0.121504001319408 0.827382981777191
0.099812999367714 0.120200999081135 0.826012015342712
0.084611997008324 0.126792997121811 0.825350999832153
0.086608998477459 0.128309994935989 0.827987015247345
0.078872002661228 0.134689003229141 0.825877010822296
0.082220003008842 0.132140994071960 0.826471984386444
0.085119001567364 0.130119994282722 0.828320980072021
0.075712002813816 0.138744994997978 0.825846016407013
0.082038000226021 0.135030001401901 0.827777028083801
0.072948001325130 0.143016993999481 0.825384974479675
0.076246999204159 0.141323998570442 0.828406989574432
0.057737000286579 0.149186000227928 0.826874971389771
0.063051998615265 0.147428005933762 0.826466977596283
0.068150997161865 0.147777006030083 0.826501011848450
0.071152999997139 0.148182004690170 0.828625977039337
0.075349003076553 0.145570993423462 0.826683998107910
0.048013001680374 0.151991993188858 0.827000021934509
0.052868001163006 0.151095002889633 0.827485024929047
0.056896001100540 0.151233002543449 0.828431010246277
0.063674002885818 0.149872004985809 0.828513026237488
0.073119997978210 0.151601999998093 0.825794994831085
0.040941998362541 0.156267002224922 0.826083004474640
0.034519001841545 0.162890002131462 0.825747013092041
0.036198001354933 0.162229001522064 0.827784001827240
0.168408006429672 0.343587011098862 0.827390015125275
0.159525007009506 0.348376005887985 0.828472971916199
0.162680998444557 0.347965985536575 0.828397989273071
0.166246995329857 0.346080988645554 0.827588021755219
0.170874997973442 0.347402989864349 0.827143013477325
0.176818996667862 0.349400013685226 0.826892971992493
0.128279000520706 0.353534013032913 0.828097999095917
0.149266004562378 0.352288007736206 0.829276978969574
0.151557996869087 0.353574007749557 0.827922999858856
0.156251996755600 0.351377010345459 0.827938020229340
0.161662995815277 0.352528989315033 0.825345993041992
0.180460005998611 0.352367997169495 0.826323986053467
0.134104996919632 0.359037011861801 0.827112019062042
0.139128997921944 0.358242988586426 0.828400015830994
0.142230004072189 0.358990997076035 0.828360021114349
0.146135002374649 0.356357008218765 0.827865004539490
0.151907995343208 0.357630014419556 0.826097011566162
0.184300005435944 0.355296999216080 0.826843976974487
0.188435003161430 0.358330011367798 0.826507985591888
0.136297002434731 0.360760003328323 0.827890992164612
0.142055004835129 0.362724006175995 0.825748026371002
0.147578999400139 0.363840013742447 0.824657976627350
0.191634997725487 0.361855000257492 0.825941026210785
0.136802002787590 0.368752986192703 0.826717972755432
0.197356998920441 0.366304993629456 0.826165020465851
0.200063005089760 0.367554992437363 0.827865004539490
0.134451001882553 0.369787991046906 0.828200995922089
0.136990994215012 0.371859997510910 0.826564013957977
0.097625002264977 0.123217001557350 0.830977022647858
0.101272001862526 0.122527003288269 0.831753015518188
0.089060999453068 0.129585996270180 0.830546021461487
0.093258999288082 0.126370996236801 0.832156002521515
0.087475001811981 0.132629007101059 0.831945002079010
0.091761998832226 0.130700007081032 0.832132995128632
0.082912996411324 0.137676000595093 0.830357015132904
0.086592003703117 0.136000007390976 0.833411991596222
0.081969998776913 0.142297998070717 0.832060992717743
0.074470996856689 0.149651005864143 0.830070018768311
0.077306002378464 0.147839993238449 0.831776022911072
0.053061001002789 0.153714001178741 0.829771995544434
0.062304001301527 0.153042003512383 0.830839991569519
0.067149996757507 0.151252001523972 0.829892992973328
0.070958003401756 0.153473004698753 0.831017971038818
0.077377997338772 0.152482002973557 0.831266999244690
0.043542001396418 0.158319994807243 0.830717980861664
0.046525001525879 0.156874999403954 0.830834984779358
0.051601000130177 0.157945007085800 0.832678973674774
0.057137001305819 0.156611993908882 0.832867026329041
0.062203001230955 0.156156003475189 0.832947015762329
0.068008996546268 0.154930993914604 0.832866013050079
0.072809003293514 0.156959995627403 0.832552015781403
0.078997999429703 0.156525999307632 0.832944989204407
0.039624001830816 0.161491006612778 0.830730974674225
0.042408000677824 0.162163004279137 0.834025025367737
0.036262001842260 0.165046006441116 0.831250011920929
0.034853000193834 0.171302005648613 0.832395017147064
0.144381999969482 0.238507002592087 0.832521021366119
0.145419001579285 0.235175997018814 0.834477007389069
0.155246004462242 0.337350010871887 0.831656992435455
0.160916998982430 0.338113009929657 0.831686019897461
0.166959002614021 0.338436990976334 0.833186984062195
0.147527992725372 0.344478994607925 0.833943009376526
0.153191998600960 0.343163013458252 0.833115994930267
0.157768994569778 0.340723991394043 0.833275020122528
0.161319002509117 0.342395007610321 0.831966996192932
0.167879998683929 0.341165989637375 0.831921994686127
0.173473998904228 0.342067986726761 0.832701981067657
0.143112003803253 0.347263991832733 0.832225978374481
0.146274000406265 0.347575008869171 0.832305014133453
0.152086004614830 0.348571002483368 0.830555021762848
0.155386999249458 0.344940006732941 0.831571996212006
0.173126995563507 0.344850003719330 0.830048978328705
0.178289994597435 0.346679985523224 0.831192970275879
0.184145003557205 0.347137004137039 0.833432018756866
0.188552007079124 0.349568992853165 0.834375977516174
0.130818992853165 0.354265987873077 0.832850992679596
0.137000992894173 0.353442013263702 0.833276987075806
0.142032995820045 0.352032989263535 0.831880986690521
0.181604996323586 0.350403994321823 0.830334007740021
0.186646997928619 0.352528989315033 0.831206977367401
0.192374005913734 0.353471994400024 0.833329975605011
0.132743999361992 0.357966005802155 0.832593023777008
0.135689005255699 0.355713993310928 0.831799983978271
0.189744994044304 0.356436997652054 0.829761028289795
0.193653002381325 0.359578996896744 0.829841017723083
0.197236001491547 0.357068002223969 0.833248019218445
0.130836993455887 0.364244997501373 0.831812977790833
0.198274999856949 0.361483007669449 0.830973982810974
0.133395001292229 0.365945994853973 0.830074012279510
0.200121998786926 0.365103989839554 0.829719007015228
0.097690999507904 0.127948001027107 0.836712002754211
0.101002000272274 0.126549005508423 0.837343990802765
0.093532003462315 0.132906004786491 0.837351977825165
0.095187000930309 0.133704006671906 0.837796986103058
0.089663997292519 0.136057004332542 0.835846006870270
0.091563999652863 0.138143002986908 0.838141977787018
0.083958998322487 0.144467994570732 0.834670007228851
0.087323002517223 0.141809999942780 0.837368011474609
0.090258002281189 0.140652999281883 0.837010025978088
0.081359997391701 0.149020999670029 0.834640026092529
0.087976001203060 0.147418007254601 0.838243007659912
0.078892000019550 0.153071999549866 0.834752976894379
0.084480002522469 0.151265993714333 0.837173998355865
0.086627997457981 0.152125999331474 0.838526010513306
0.054237000644207 0.159697994589806 0.835708975791931
0.061344999819994 0.158956006169319 0.835640013217926
0.068209998309612 0.157728001475334 0.835313975811005
0.077590003609657 0.157995000481606 0.835471987724304
0.082206003367901 0.156093001365662 0.837684988975525
0.043600998818874 0.164050996303558 0.836740016937256
0.047582000494003 0.162342995405197 0.836932003498077
0.052677001804113 0.162117004394531 0.837979018688202
0.057973001152277 0.160723999142647 0.837152004241943
0.061528999358416 0.161742001771927 0.838373005390167
0.065246000885963 0.161287993192673 0.838418006896973
0.071966998279095 0.161561995744705 0.837355017662048
0.076018996536732 0.163977995514870 0.837966024875641
0.081223003566265 0.160685002803802 0.837906002998352
0.037914998829365 0.167080000042915 0.837228000164032
0.040911998599768 0.166798993945122 0.837370991706848
0.078489996492863 0.165917992591858 0.837662994861603
0.036217998713255 0.171152994036674 0.837692022323608
0.036561999469995 0.176442995667458 0.836277008056641
0.145850002765656 0.238599002361298 0.835142016410828
0.147036999464035 0.242026999592781 0.836692988872528
0.147925004363060 0.246041998267174 0.837682008743286
0.148215994238853 0.250481009483337 0.837800025939941
0.149592995643616 0.334100008010864 0.839345991611481
0.153899997472763 0.334690004587173 0.838285982608795
0.156948998570442 0.333196014165878 0.837660014629364
0.160898998379707 0.332899987697601 0.837913990020752
0.168748006224632 0.333943009376526 0.838835000991821
0.189682006835938 0.334012001752853 0.838617980480194
0.190139994025230 0.332962006330490 0.837728977203369
0.146714001893997 0.338732004165649 0.837863028049469
0.152309998869896 0.336670994758606 0.836937010288239
0.160870999097824 0.336365997791290 0.835192978382111
0.167859002947807 0.335936993360519 0.836651027202606
0.172604992985725 0.337321996688843 0.837116003036499
0.177121996879578 0.338245004415512 0.837828993797302
0.183558002114296 0.339260011911392 0.839163005352020
0.137961000204086 0.344491004943848 0.836704015731812
0.142148002982140 0.342314988374710 0.837616980075836
0.151089996099472 0.341349989175797 0.834855020046234
0.175919994711876 0.341051995754242 0.835246980190277
0.181235000491142 0.342763990163803 0.835895001888275
0.187429994344711 0.342649996280670 0.838060975074768
0.192423000931740 0.344476997852325 0.838769972324371
0.196720004081726 0.342029988765717 0.838859021663666
0.128978997468948 0.347891986370087 0.836422026157379
0.134710997343063 0.348569989204407 0.836507022380829
0.140908002853394 0.346581995487213 0.835119009017944
0.192909002304077 0.347674012184143 0.836537003517151
0.195680007338524 0.346392005681992 0.837996006011963
0.125769004225731 0.353026986122131 0.835973024368286
0.131640002131462 0.350713998079300 0.837019026279449
0.137795001268387 0.350874006748199 0.834674000740051
0.127565994858742 0.356812000274658 0.836709976196289
0.101951003074646 0.128696992993355 0.841848015785217
0.099582001566887 0.130750998854637 0.841270029544830
0.093797996640205 0.139057993888855 0.840903997421265
0.096188999712467 0.135052993893623 0.840969026088715
0.093066997826099 0.143445000052452 0.842281997203827
0.095811001956463 0.140325993299484 0.843466997146606
0.088913001120090 0.154363006353378 0.841214001178741
0.091586999595165 0.151794999837875 0.843325972557068
0.087881997227669 0.158764004707336 0.841957986354828
0.091393001377583 0.156349003314972 0.842451989650726
0.051543999463320 0.164566993713379 0.840077996253967
0.058391999453306 0.163405001163483 0.839949011802673
0.069477997720242 0.164737001061440 0.840839982032776
0.083352997899055 0.162619993090630 0.840683996677399
0.086534000933170 0.161586999893188 0.843487024307251
0.041329998522997 0.168687000870705 0.840651988983154
0.046374000608921 0.166595995426178 0.840775012969971
0.055266998708248 0.167151004076004 0.842990994453430
0.062421999871731 0.166312992572784 0.842831015586853
0.065770000219345 0.166473001241684 0.842549979686737
0.073380000889301 0.168060004711151 0.842404007911682
0.078088000416756 0.169593006372452 0.841747999191284
0.081572003662586 0.167872995138168 0.842490017414093
0.087880998849869 0.167023003101349 0.842242002487183
0.038667000830173 0.171995997428894 0.842050015926361
0.077358998358250 0.171226993203163 0.844009995460510
0.082774996757507 0.170945003628731 0.843348979949951
0.148330003023148 0.243267998099327 0.841956019401550
0.149167001247406 0.245214998722076 0.843620002269745
0.147184997797012 0.318729996681213 0.841919004917145
0.151329994201660 0.319384008646011 0.842871010303497
0.145407006144524 0.324126988649368 0.842441022396088
0.152551993727684 0.322528988122940 0.842857003211975
0.159493997693062 0.324396014213562 0.840637981891632
0.148910000920296 0.328128993511200 0.843273997306824
0.157296001911163 0.327288985252380 0.842078983783722
0.161543995141983 0.327618986368179 0.842446982860565
0.166531994938850 0.329479008913040 0.842083990573883
0.143133997917175 0.331461995840073 0.843183994293213
0.145875006914139 0.332145988941193 0.841664016246796
0.152766004204750 0.330462008714676 0.840749979019165
0.164105996489525 0.332044988870621 0.839842975139618
0.170388996601105 0.331952989101410 0.841445982456207
0.176501005887985 0.333335012197495 0.842616975307465
0.138573005795479 0.338474988937378 0.842070996761322
0.143264994025230 0.335927993059158 0.841154992580414
0.179158002138138 0.336748003959656 0.839833021163940
0.181409001350403 0.335283011198044 0.842285990715027
0.187925994396210 0.338214993476868 0.841265976428986
0.134601995348930 0.341793000698090 0.842342972755432
0.137024998664856 0.343502014875412 0.840169012546539
0.193801999092102 0.342386990785599 0.839785993099213
0.127516999840736 0.348334014415741 0.842500984668732
0.132009997963905 0.346606999635696 0.841132998466492
0.125551998615265 0.352553993463516 0.841802000999451
0.102381996810436 0.132768005132675 0.846500992774963
0.098713003098965 0.136738002300262 0.845888018608093
0.097029000520706 0.141780003905296 0.846193015575409
0.096354000270367 0.147192999720573 0.847235023975372
0.096119001507759 0.153384998440742 0.848116993904114
0.093093998730183 0.157625004649162 0.845668971538544
0.095526002347469 0.158483996987343 0.847874999046326
0.091853998601437 0.162871003150940 0.845851004123688
0.095669999718666 0.164715006947517 0.848955988883972
0.048358000814915 0.169045999646187 0.844639003276825
0.059349998831749 0.169640004634857 0.845911026000977
0.066642001271248 0.169144004583359 0.844956994056702
0.087536998093128 0.165792003273964 0.844823002815247
0.091284997761250 0.168556004762650 0.846553981304169
0.041305001825094 0.171694993972778 0.845218002796173
0.047401998192072 0.171517997980118 0.847382009029388
0.052441999316216 0.171577006578445 0.847557008266449
0.057849001139402 0.172097995877266 0.848035991191864
0.063291996717453 0.172551006078720 0.848392009735107
0.067714996635914 0.173503994941711 0.847784996032715
0.072650998830795 0.173207998275757 0.845911026000977
0.081721998751163 0.173947006464005 0.845368981361389
0.088789001107216 0.172884002327919 0.847459971904755
0.092352002859116 0.172214999794960 0.847325026988983
0.041723001748323 0.175873994827271 0.846701979637146
0.074391998350620 0.177153006196022 0.848295986652374
0.078533999621868 0.177717998623848 0.847678005695343
0.082865998148918 0.179434001445770 0.847230017185211
0.086592003703117 0.176531001925468 0.847612023353577
0.040771998465061 0.181748002767563 0.845521986484528
0.076282002031803 0.179994001984596 0.847557008266449
0.081964001059532 0.181621998548508 0.849354982376099
0.085358999669552 0.183324992656708 0.847553014755249
0.147578999400139 0.229640007019043 0.847323000431061
0.152089998126030 0.245827004313469 0.845941007137299
0.156420007348061 0.249202996492386 0.849334001541138
0.144865006208420 0.308113992214203 0.847608983516693
0.149428993463516 0.311874002218246 0.847863972187042
0.138145998120308 0.319501996040344 0.847638010978699
0.143454000353813 0.317824006080627 0.848986983299255
0.146255999803543 0.316662013530731 0.847012996673584
0.150671005249023 0.316796004772186 0.847540974617004
0.156683996319771 0.318516999483109 0.848735988140106
0.141795992851257 0.321052014827728 0.847886979579926
0.146404996514320 0.322463989257812 0.845628976821899
0.154478996992111 0.320064008235931 0.846526980400085
0.158758997917175 0.322614997625351 0.845930993556976
0.161470994353294 0.320724010467529 0.847921013832092
0.165014997124672 0.323435992002487 0.847431004047394
0.133901998400688 0.329506009817123 0.848834991455078
0.136953994631767 0.326979994773865 0.847585976123810
0.141834005713463 0.328440994024277 0.844712972640991
0.163166999816895 0.325222998857498 0.845152974128723
0.168463006615639 0.326938003301620 0.846170008182526
0.173273995518684 0.329169988632202 0.846862971782684
0.132453992962837 0.333862990140915 0.847936987876892
0.138870999217033 0.332650989294052 0.845281004905701
0.171841993927956 0.329881012439728 0.844874024391174
0.177551001310349 0.331364005804062 0.845988988876343
0.181946992874146 0.333404988050461 0.845583975315094
0.188865005970001 0.334192007780075 0.845287024974823
0.128609001636505 0.337660014629364 0.849456012248993
0.131898000836372 0.337644994258881 0.847599983215332
0.135784000158310 0.336746007204056 0.845133006572723
0.187966004014015 0.336475998163223 0.847064018249512
0.127212002873421 0.343968987464905 0.846727013587952
0.132484003901482 0.340539008378983 0.845242023468018
0.125792995095253 0.345371007919312 0.846294999122620
0.101556003093719 0.138675004243851 0.852361023426056
0.099069997668266 0.142820000648499 0.850036025047302
0.100952997803688 0.142087996006012 0.853459000587463
0.098895996809006 0.149482995271683 0.850933015346527
0.100456997752190 0.147343993186951 0.853295981884003
0.100542001426220 0.152679994702339 0.852708995342255
0.099330000579357 0.156253993511200 0.851346015930176
0.098205998539925 0.161944001913071 0.851109027862549
0.099893003702164 0.159964993596077 0.853335976600647
0.097773000597954 0.167355000972748 0.851041018962860
0.100565001368523 0.167208001017570 0.853606998920441
0.039733000099659 0.174606993794441 0.849915027618408
0.047827001661062 0.173906996846199 0.850355029106140
0.056458998471498 0.174035996198654 0.850192010402679
0.096879996359348 0.172813996672630 0.850881993770599
0.100339002907276 0.172142997384071 0.853484988212585
0.041924998164177 0.177061006426811 0.851679027080536
0.047926001250744 0.176670998334885 0.853487014770508
0.053525000810623 0.175932005047798 0.852505028247833
0.056756000965834 0.177515998482704 0.853130996227264
0.060407999902964 0.177236005663872 0.852716028690338
0.066624000668526 0.177558004856110 0.851105988025665
0.071512997150421 0.179049998521805 0.849991023540497
0.089445002377033 0.179536998271942 0.850553989410400
0.092532999813557 0.175499007105827 0.850103974342346
0.096634998917580 0.178737998008728 0.852764010429382
0.063909001648426 0.180877998471260 0.854408979415894
0.068961001932621 0.182728007435799 0.853334009647369
0.073758997023106 0.184740006923676 0.852092027664185
0.075869999825954 0.181702002882957 0.849955022335052
0.086461998522282 0.183602005243301 0.850221991539001
0.093460001051426 0.182006999850273 0.852679014205933
0.071942001581192 0.186473995447159 0.854403018951416
0.076852999627590 0.188271999359131 0.853470981121063
0.081725999712944 0.186152994632721 0.851432979106903
0.090997003018856 0.186141997575760 0.852958977222443
0.082791998982430 0.191363006830215 0.852581024169922
0.087283000349998 0.191194996237755 0.852594017982483
0.091874003410339 0.192276999354362 0.851826012134552
0.090150997042656 0.196492001414299 0.852212011814117
0.093741998076439 0.201132997870445 0.852544009685516
0.092532999813557 0.205227002501488 0.852236986160278
0.144271999597549 0.218915000557899 0.852020025253296
0.145040005445480 0.224069997668266 0.849672973155975
0.145696997642517 0.227992996573448 0.852208971977234
0.146174997091293 0.232102006673813 0.852132976055145
0.144277006387711 0.238580003380775 0.853704988956451
0.146877005696297 0.236640006303787 0.851381003856659
0.150131002068520 0.238270998001099 0.849681019783020
0.149462997913361 0.241439998149872 0.850911974906921
0.146705001592636 0.245593994855881 0.853290975093842
0.151842996478081 0.246696993708611 0.851028025150299
0.149753004312515 0.250088006258011 0.853227972984314
0.153944000601768 0.252452999353409 0.852541029453278
0.152031004428864 0.255721986293793 0.854529023170471
0.158003002405167 0.256729990243912 0.852689027786255
0.161658003926277 0.258837014436722 0.851742029190063
0.165581002831459 0.267596989870071 0.854175984859467
0.141026005148888 0.302430003881454 0.852948009967804
0.147181004285812 0.303640991449356 0.852442026138306
0.132994994521141 0.306910008192062 0.854094982147217
0.137539997696877 0.307134985923767 0.852653980255127
0.145705997943878 0.306805014610291 0.852641999721527
0.149991005659103 0.307539999485016 0.852069973945618
0.133091002702713 0.310900002717972 0.853003025054932
0.135951995849609 0.312065988779068 0.851792991161346
0.142710998654366 0.310638993978500 0.850853979587555
0.147899001836777 0.311838001012802 0.850548028945923
0.153626993298531 0.312846004962921 0.851329028606415
0.157250002026558 0.312739998102188 0.853354990482330
0.132293999195099 0.317050009965897 0.852612018585205
0.136662006378174 0.318978011608124 0.849695026874542
0.139912992715836 0.314888000488281 0.850144028663635
0.157692998647690 0.315726995468140 0.850802004337311
0.162324994802475 0.317705988883972 0.851925015449524
0.128069996833801 0.322023987770081 0.854324996471405
0.132126003503799 0.323125004768372 0.851758003234863
0.167545005679131 0.323116987943649 0.850712001323700
0.170840993523598 0.322995007038116 0.854228973388672
0.128085002303123 0.326314002275467 0.853051006793976
0.131213992834091 0.326914995908737 0.851041972637177
0.174136996269226 0.326348006725311 0.852374017238617
0.178646996617317 0.328877985477448 0.850443005561829
0.181156992912292 0.328873991966248 0.852364003658295
0.119606003165245 0.333974987268448 0.851970016956329
0.123758003115654 0.334104001522064 0.853676021099091
0.127101004123688 0.330733001232147 0.852931022644043
0.183011993765831 0.330662995576859 0.851611971855164
0.187503993511200 0.331844985485077 0.852276980876923
0.121500000357628 0.337518990039825 0.852801978588104
0.125819995999336 0.335348010063171 0.851990997791290
0.125474005937576 0.341693013906479 0.849873006343842
0.103559002280235 0.142001003026962 0.857921004295349
0.101810000836849 0.145487993955612 0.855708003044128
0.101765997707844 0.152246996760368 0.856055021286011
0.102197997272015 0.157278001308441 0.856709003448486
0.102886997163296 0.163131996989250 0.857187986373901
0.103632003068924 0.166513994336128 0.856778025627136
0.045283000916243 0.174558997154236 0.854683995246887
0.103809997439384 0.171114996075630 0.856997013092041
0.041972998529673 0.179364994168282 0.858525991439819
0.046498000621796 0.178301006555557 0.855955004692078
0.053109001368284 0.178311005234718 0.855248987674713
0.103192001581192 0.177437007427216 0.856131970882416
0.105749003589153 0.176899999380112 0.858891010284424
0.043079998344183 0.180335998535156 0.856797993183136
0.046236999332905 0.180252999067307 0.859622001647949
0.052783001214266 0.180923998355865 0.857779979705811
0.057202000170946 0.181786000728607 0.857694983482361
0.062187999486923 0.183286994695663 0.856619000434875
0.102044001221657 0.182648003101349 0.855659008026123
0.105364002287388 0.182274997234344 0.858253002166748
0.060656998306513 0.185177996754646 0.858999013900757
0.065730996429920 0.186946004629135 0.857968986034393
0.070606999099255 0.189062997698784 0.856575012207031
0.094553999602795 0.189208999276161 0.855544984340668
0.097791001200676 0.185441002249718 0.854957997798920
0.103027001023293 0.188283994793892 0.857581019401550
0.068654999136925 0.190983995795250 0.859025001525879
0.073572002351284 0.193105995655060 0.857640027999878
0.092090003192425 0.193184003233910 0.855080008506775
0.098545998334885 0.192913994193077 0.857387006282806
0.102689996361732 0.192559003829956 0.857376992702484
0.077413000166416 0.196631997823715 0.857490003108978
0.082442000508308 0.198250994086266 0.856689989566803
0.086893998086452 0.196389004588127 0.855129003524780
0.096234001219273 0.196402996778488 0.856651008129120
0.101921997964382 0.197396993637085 0.858768999576569
0.079066999256611 0.199842005968094 0.857928991317749
0.083062000572681 0.201342999935150 0.858524024486542
0.087240003049374 0.203437998890877 0.857277989387512
0.092674002051353 0.200664997100830 0.857264995574951
0.097649998962879 0.202147006988525 0.857456028461456
0.101814001798630 0.202925994992256 0.857662975788116
0.135802000761032 0.204338997602463 0.859188973903656
0.092771999537945 0.206391006708145 0.858124971389771
0.097864001989365 0.208583995699883 0.858313977718353
0.101452998816967 0.206560000777245 0.859124004840851
0.099905997514725 0.216488003730774 0.856347978115082
0.141872003674507 0.218039005994797 0.858263015747070
0.103747002780437 0.222891002893448 0.857797980308533
0.142196998000145 0.222023993730545 0.857331991195679
0.105563998222351 0.228624999523163 0.857715010643005
0.138870999217033 0.228217005729675 0.858563005924225
0.142252996563911 0.226944997906685 0.856418013572693
0.138017997145653 0.232850998640060 0.858515977859497
0.143852993845940 0.231527000665665 0.854638993740082
0.138375997543335 0.235574007034302 0.857963979244232
0.141425997018814 0.235764995217323 0.855852007865906
0.138612002134323 0.239823997020721 0.857846021652222
0.142469003796577 0.242684006690979 0.855397999286652
0.138566002249718 0.246723994612694 0.858677029609680
0.140919998288155 0.246485993266106 0.856857001781464
0.142234995961189 0.252247989177704 0.857312023639679
0.147681996226311 0.252692013978958 0.854866027832031
0.143953993916512 0.257739007472992 0.858892977237701
0.147388994693756 0.257710993289948 0.856846988201141
0.155853003263474 0.258868008852005 0.854933977127075
0.147802993655205 0.261258989572525 0.858264029026031
0.152879998087883 0.262715995311737 0.857810974121094
0.157789006829262 0.262454986572266 0.856885015964508
0.158264994621277 0.267513990402222 0.859139978885651
0.161974996328354 0.266467005014420 0.855850994586945
0.164178997278214 0.272132992744446 0.857811987400055
0.088422998785973 0.278165996074677 0.857793986797333
0.166750997304916 0.275227993726730 0.859242022037506
0.088344000279903 0.281695991754532 0.858470022678375
0.102182000875473 0.281150996685028 0.859420001506805
0.106287002563477 0.284220993518829 0.858415007591248
0.130963996052742 0.284372985363007 0.859381020069122
0.091413997113705 0.287779003381729 0.858205020427704
0.097227998077869 0.287836998701096 0.858259975910187
0.103459998965263 0.288484990596771 0.859054982662201
0.107276000082493 0.286655992269516 0.857141017913818
0.110468000173569 0.287169009447098 0.858956992626190
0.117352001368999 0.286298006772995 0.859358012676239
0.121301002800465 0.289081990718842 0.859183013439178
0.128281995654106 0.286877989768982 0.858335018157959
0.133249998092651 0.286985993385315 0.857536971569061
0.139329999685287 0.289557993412018 0.859465003013611
0.093070998787880 0.291974991559982 0.857421994209290
0.095126003026962 0.292333006858826 0.858269989490509
0.100234001874924 0.292468994855881 0.858698010444641
0.107052996754646 0.291222989559174 0.858882009983063
0.113077998161316 0.292142987251282 0.859080016613007
0.118119999766350 0.293238013982773 0.859086990356445
0.126922994852066 0.292831003665924 0.858551979064941
0.132150992751122 0.290771007537842 0.857971012592316
0.136804997920990 0.292351990938187 0.857298970222473
0.142893001437187 0.292856007814407 0.858224987983704
0.098036997020245 0.296319007873535 0.857743024826050
0.103137999773026 0.297457993030548 0.859130024909973
0.108398996293545 0.298233002424240 0.859245002269745
0.112014003098011 0.296875000000000 0.857887029647827
0.115243002772331 0.297217994928360 0.859501004219055
0.122656002640724 0.296335011720657 0.858601987361908
0.126260995864868 0.298925012350082 0.857810020446777
0.132199004292488 0.296270012855530 0.857159018516541
0.139432996511459 0.299282997846603 0.858582973480225
0.141119003295898 0.296483993530273 0.857380986213684
0.146895006299019 0.296512007713318 0.858105003833771
0.151168003678322 0.298503994941711 0.858174979686737
0.099542997777462 0.301330000162125 0.857011020183563
0.100887998938560 0.302608996629715 0.858264982700348
0.118502996861935 0.302592009305954 0.858869016170502
0.122639998793602 0.302895992994308 0.857878029346466
0.130502000451088 0.301889002323151 0.855834007263184
0.137424007058144 0.300794988870621 0.854741990566254
0.144577994942665 0.299768000841141 0.855871975421906
0.148405998945236 0.302432000637054 0.855408012866974
0.153901994228363 0.302585005760193 0.857141017913818
0.102055996656418 0.307182013988495 0.858528017997742
0.121954999864101 0.307722985744476 0.858444988727570
0.127633005380630 0.306165993213654 0.856136023998260
0.152741998434067 0.305501013994217 0.855162024497986
0.157882004976273 0.307336986064911 0.857046008110046
0.161632999777794 0.307662993669510 0.857186019420624
0.117812000215054 0.311190009117126 0.859607994556427
0.122344002127647 0.313663005828857 0.857922971248627
0.126764997839928 0.311580002307892 0.855888009071350
0.161111995577812 0.310988008975983 0.857007026672363
0.166087001562119 0.313356995582581 0.858999013900757
0.123364999890327 0.316751003265381 0.858371019363403
0.125744000077248 0.316861987113953 0.856038987636566
0.163993999361992 0.314924985170364 0.855818986892700
0.168419003486633 0.317717999219894 0.858074009418488
0.122371003031731 0.320751011371613 0.857632994651794
0.167273998260498 0.320262998342514 0.854839026927948
0.171656996011734 0.321429014205933 0.856562972068787
0.176210999488831 0.324584007263184 0.856242001056671
0.119268998503685 0.325224012136459 0.859014987945557
0.122773997485638 0.326324999332428 0.856953978538513
0.178599998354912 0.327852010726929 0.854794025421143
0.182864993810654 0.328119993209839 0.856697022914886
0.117498002946377 0.331072986125946 0.857984006404877
0.120994001626968 0.332058012485504 0.855996012687683
0.119070000946522 0.335227012634277 0.854773998260498
0.103835999965668 0.146438002586365 0.862035989761353
0.106034003198147 0.145113006234169 0.860862016677856
0.103745996952057 0.152429997920990 0.860229015350342
0.104240998625755 0.157358005642891 0.861109972000122
0.105361998081207 0.162606999278069 0.862474977970123
0.105167001485825 0.166100993752480 0.860225021839142
0.107467003166676 0.172004997730255 0.862371981143951
0.108880996704102 0.176108002662659 0.861579000949860
0.045983999967575 0.182955995202065 0.861769020557404
0.051885999739170 0.183666005730629 0.861757993698120
0.108611002564430 0.181649997830391 0.861244976520538
0.109901003539562 0.179835006594658 0.863735973834991
0.054049998521805 0.186115995049477 0.864382982254028
0.059500999748707 0.187049999833107 0.861410975456238
0.108281999826431 0.187114000320435 0.861047029495239
0.111019998788834 0.186629995703697 0.863843023777008
0.063366003334522 0.189944997429848 0.861433982849121
0.067598000168800 0.193344995379448 0.861401975154877
0.107612997293472 0.192512005567551 0.860655009746552
0.112080000340939 0.193009003996849 0.862573027610779
0.067514002323151 0.196638002991676 0.864104986190796
0.071096003055573 0.196590006351471 0.861131012439728
0.075088001787663 0.199472993612289 0.860696971416473
0.106963999569416 0.198217004537582 0.860722005367279
0.114252001047134 0.197240993380547 0.861706972122192
0.073859997093678 0.201509997248650 0.863252997398376
0.077509000897408 0.202939003705978 0.861763000488281
0.103853002190590 0.202308997511864 0.859866023063660
0.109128996729851 0.201091006398201 0.862299025058746
0.110803999006748 0.202970996499062 0.863664984703064
0.116126000881195 0.200304999947548 0.862217009067535
0.138209998607635 0.203565001487732 0.861204028129578
0.078239999711514 0.205890998244286 0.862529993057251
0.082137003540993 0.207071006298065 0.861316978931427
0.087071999907494 0.208646997809410 0.859715998172760
0.106252998113632 0.207108005881310 0.861308991909027
0.111133001744747 0.208269998431206 0.863368988037109
0.138387992978096 0.209345996379852 0.862441003322601
0.079728998243809 0.210396006703377 0.864409029483795
0.083589002490044 0.213682994246483 0.864190995693207
0.087116003036499 0.213225007057190 0.862021982669830
0.091167002916336 0.211458995938301 0.859629988670349
0.095197997987270 0.214625999331474 0.860038995742798
0.102236002683640 0.213198006153107 0.860832989215851
0.108269996941090 0.211977005004883 0.862035989761353
0.112006999552250 0.212635993957520 0.863045990467072
0.137095004320145 0.213428005576134 0.862425982952118
0.140260994434357 0.211687996983528 0.861195981502533
0.087526999413967 0.216306000947952 0.863695025444031
0.091788999736309 0.218821004033089 0.862644970417023
0.098866999149323 0.217693999409676 0.860203981399536
0.107063002884388 0.217642992734909 0.861617982387543
0.111884996294975 0.217325001955032 0.864104986190796
0.117426998913288 0.217832997441292 0.864491999149323
0.132254004478455 0.217096999287605 0.863413989543915
0.135781005024910 0.219129994511604 0.861968994140625
0.094637997448444 0.222861006855965 0.863228976726532
0.096652001142502 0.221397995948792 0.861772000789642
0.101639002561569 0.222313001751900 0.861127018928528
0.108363002538681 0.223111003637314 0.862803995609283
0.114353999495506 0.223019003868103 0.863498985767365
0.125437006354332 0.224083006381989 0.864507019519806
0.132095992565155 0.222899004817009 0.862924993038177
0.139234006404877 0.221732005476952 0.859642982482910
0.098047003149986 0.228137999773026 0.863517999649048
0.104610003530979 0.227346003055573 0.861191987991333
0.107188001275063 0.226467996835709 0.863361001014709
0.111974999308586 0.227349996566772 0.862780988216400
0.116929002106190 0.226459994912148 0.863663017749786
0.122290000319481 0.228029996156693 0.863958001136780
0.129212006926537 0.226860001683235 0.863336980342865
0.130798995494843 0.229279994964600 0.863130986690521
0.136436998844147 0.225737005472183 0.860216021537781
0.101626999676228 0.231310993432999 0.862949013710022
0.107222996652126 0.231978997588158 0.862254977226257
0.112977996468544 0.232985004782677 0.862730026245117
0.119514003396034 0.232237994670868 0.863991975784302
0.123310998082161 0.232089996337891 0.862734973430634
0.125912994146347 0.230535998940468 0.863341987133026
0.131559997797012 0.232527002692223 0.862592995166779
0.104611001908779 0.236129000782967 0.862982988357544
0.109352000057697 0.237223997712135 0.862662017345428
0.113536000251770 0.238060995936394 0.862345993518829
0.117105998098850 0.237792998552322 0.863168001174927
0.122152000665665 0.237173005938530 0.864157974720001
0.128112003207207 0.238110005855560 0.863074004650116
0.132281005382538 0.238211005926132 0.861950993537903
0.106486000120640 0.241113007068634 0.863210022449493
0.111645996570587 0.242963001132011 0.863075971603394
0.117592997848988 0.242578998208046 0.863135993480682
0.124194003641605 0.241941004991531 0.864211022853851
0.127506002783775 0.243387997150421 0.862524986267090
0.131803005933762 0.241120994091034 0.861567974090576
0.135599002242088 0.243805006146431 0.859794020652771
0.107638001441956 0.248518005013466 0.864184975624084
0.114082001149654 0.247647002339363 0.862901985645294
0.119474999606609 0.249601006507874 0.863690972328186
0.121817000210285 0.245984002947807 0.863912999629974
0.126395002007484 0.247253999114037 0.863246977329254
0.132887005805969 0.247966006398201 0.861322999000549
0.113471999764442 0.252032011747360 0.863138973712921
0.117053002119064 0.252344995737076 0.862398028373718
0.123576998710632 0.253672987222672 0.863322019577026
0.128693997859955 0.252216011285782 0.863416016101837
0.130570992827415 0.251789987087250 0.862496018409729
0.136764004826546 0.250930011272430 0.859802007675171
0.113243997097015 0.258186995983124 0.862802982330322
